ply
        format ascii 1.0
        element vertex 1350
        property float x
        property float y
        property float z
        property uchar red
        property uchar green
        property uchar blue
        end_header
-0.361483 0.141282 -2.528521 81 85 79 
-0.357907 0.141282 -2.528521 82 84 84 
-0.354331 0.141282 -2.528521 80 86 84 
-0.350755 0.141282 -2.528521 81 85 85 
-0.347179 0.141282 -2.528521 81 81 77 
-0.343602 0.141282 -2.528521 81 82 78 
-0.340026 0.141282 -2.528521 80 83 79 
-0.336450 0.141282 -2.528521 79 84 84 
-0.332874 0.141282 -2.528521 80 85 83 
-0.329298 0.141282 -2.528521 80 82 80 
-0.325722 0.141282 -2.528521 79 80 77 
-0.320026 0.140352 -2.511886 79 80 76 
-0.314405 0.139435 -2.495468 79 82 74 
-0.314993 0.141282 -2.528521 79 81 85 
-0.311417 0.141282 -2.528521 82 82 84 
-0.307841 0.141282 -2.528521 89 85 80 
-0.304265 0.141282 -2.528521 94 87 83 
-0.300689 0.141282 -2.528521 82 86 83 
-0.297112 0.141282 -2.528521 82 83 81 
-0.293536 0.141282 -2.528521 81 81 82 
-0.289960 0.141282 -2.528521 78 81 82 
-0.286384 0.141282 -2.528521 79 81 84 
-0.282808 0.141282 -2.528521 79 83 78 
-0.275582 0.139435 -2.495468 81 83 77 
-0.273842 0.140352 -2.511886 61 75 78 
-0.275731 0.143178 -2.562461 49 52 51 
-0.273946 0.144146 -2.579775 35 34 41 
-0.270297 0.144146 -2.579775 29 21 13 
-0.266648 0.144146 -2.579775 24 16 14 
-0.263000 0.144146 -2.579775 20 17 15 
-0.361483 0.137706 -2.528521 81 83 79 
-0.357907 0.137706 -2.528521 81 86 84 
-0.354331 0.137706 -2.528521 77 86 84 
-0.350755 0.137706 -2.528521 79 84 87 
-0.347179 0.137706 -2.528521 80 83 79 
-0.343602 0.137706 -2.528521 75 83 79 
-0.340026 0.137706 -2.528521 80 82 80 
-0.336450 0.137706 -2.528521 81 82 85 
-0.332874 0.137706 -2.528521 82 83 84 
-0.329298 0.137706 -2.528521 81 84 82 
-0.325722 0.137706 -2.528521 80 83 78 
-0.320026 0.136800 -2.511886 79 82 78 
-0.308359 0.133292 -2.447478 81 81 80 
-0.312921 0.136800 -2.511886 81 83 67 
-0.309368 0.136800 -2.511886 103 90 70 
-0.305816 0.136800 -2.511886 123 106 90 
-0.302263 0.136800 -2.511886 141 105 92 
-0.300689 0.137706 -2.528521 78 94 89 
-0.297112 0.137706 -2.528521 78 92 78 
-0.293536 0.137706 -2.528521 73 94 82 
-0.289960 0.137706 -2.528521 81 79 81 
-0.286384 0.137706 -2.528521 81 82 78 
-0.282808 0.137706 -2.528521 82 82 80 
-0.275582 0.135906 -2.495468 77 81 80 
-0.273842 0.136800 -2.511886 60 75 80 
-0.275731 0.139554 -2.562461 47 53 47 
-0.273946 0.140497 -2.579775 48 38 41 
-0.270297 0.140497 -2.579775 38 26 22 
-0.266648 0.140497 -2.579775 31 20 19 
-0.263000 0.140497 -2.579775 15 16 18 
-0.361483 0.134130 -2.528521 79 84 79 
-0.357907 0.134130 -2.528521 78 84 83 
-0.354331 0.134130 -2.528521 80 82 85 
-0.350755 0.134130 -2.528521 80 81 92 
-0.347179 0.134130 -2.528521 80 82 80 
-0.343602 0.134130 -2.528521 82 83 80 
-0.340026 0.134130 -2.528521 80 82 81 
-0.336450 0.134130 -2.528521 78 80 86 
-0.332874 0.134130 -2.528521 81 83 85 
-0.329298 0.134130 -2.528521 81 84 83 
-0.325722 0.134130 -2.528521 81 82 78 
-0.320026 0.133247 -2.511886 77 79 78 
-0.300650 0.126585 -2.386292 74 81 84 
-0.295428 0.125799 -2.371470 73 61 56 
-0.297620 0.128187 -2.416498 44 71 62 
-0.294202 0.128187 -2.416498 80 82 99 
-0.290785 0.128187 -2.416498 106 113 99 
-0.298710 0.133247 -2.511886 99 94 95 
-0.295158 0.133247 -2.511886 125 78 76 
-0.291605 0.133247 -2.511886 151 110 82 
-0.288052 0.133247 -2.511886 71 88 81 
-0.284500 0.133247 -2.511886 76 81 76 
-0.280947 0.133247 -2.511886 75 82 80 
-0.275582 0.132376 -2.495468 77 80 80 
-0.273842 0.133247 -2.511886 64 72 78 
-0.275731 0.135930 -2.562461 55 50 47 
-0.270293 0.135024 -2.545377 44 36 41 
-0.266693 0.135024 -2.545377 44 28 26 
-0.261351 0.134130 -2.528521 44 26 21 
-0.257775 0.134130 -2.528521 33 21 20 
-0.361483 0.130553 -2.528521 78 83 85 
-0.357907 0.130553 -2.528521 77 82 83 
-0.354331 0.130553 -2.528521 80 84 82 
-0.350755 0.130553 -2.528521 80 82 78 
-0.347179 0.130553 -2.528521 80 83 80 
-0.343602 0.130553 -2.528521 83 83 80 
-0.340026 0.130553 -2.528521 80 81 81 
-0.336450 0.130553 -2.528521 78 81 85 
-0.332874 0.130553 -2.528521 81 80 84 
-0.329298 0.130553 -2.528521 81 83 82 
-0.325722 0.130553 -2.528521 81 83 82 
-0.320026 0.129694 -2.511886 77 79 82 
-0.293317 0.120205 -2.328089 73 81 86 
-0.267213 0.110750 -2.144981 71 63 40 
-0.270253 0.113296 -2.194291 38 30 32 
-0.268693 0.113951 -2.206975 65 34 13 
-0.265572 0.113951 -2.206975 83 49 26 
-0.294831 0.128010 -2.479264 87 69 31 
-0.293229 0.128847 -2.495468 105 52 52 
-0.289699 0.128847 -2.495468 126 66 51 
-0.286170 0.128847 -2.495468 75 80 55 
-0.282640 0.128847 -2.495468 73 79 76 
-0.279111 0.128847 -2.495468 66 75 62 
-0.272026 0.127184 -2.463269 72 61 58 
-0.272052 0.128847 -2.495468 67 58 41 
-0.268523 0.128847 -2.495468 64 46 37 
-0.264993 0.128847 -2.495468 73 52 38 
-0.261464 0.128847 -2.495468 79 50 47 
-0.257934 0.128847 -2.495468 85 47 37 
-0.254405 0.128847 -2.495468 61 35 32 
-0.361483 0.126977 -2.528521 75 80 80 
-0.357907 0.126977 -2.528521 74 80 81 
-0.354331 0.126977 -2.528521 77 82 80 
-0.350755 0.126977 -2.528521 77 80 77 
-0.347179 0.126977 -2.528521 77 83 80 
-0.343602 0.126977 -2.528521 79 84 81 
-0.340026 0.126977 -2.528521 81 83 82 
-0.336450 0.126977 -2.528521 83 82 82 
-0.332874 0.126977 -2.528521 81 80 81 
-0.329298 0.126977 -2.528521 81 80 81 
-0.325722 0.126977 -2.528521 81 83 81 
-0.317934 0.125317 -2.495468 77 81 81 
-0.284639 0.113453 -2.259211 68 79 86 
-0.160148 0.064557 -1.285544 63 56 37 
-0.149282 0.060868 -1.212085 30 27 29 
-0.158109 0.065216 -1.298662 24 23 22 
-0.156805 0.065439 -1.303094 14 18 27 
-0.291051 0.122907 -2.447478 44 33 30 
-0.289445 0.123700 -2.463269 50 57 44 
-0.285961 0.123700 -2.463269 57 51 58 
-0.282477 0.123700 -2.463269 87 52 59 
-0.278993 0.123700 -2.463269 68 68 39 
-0.275510 0.123700 -2.463269 50 42 41 
-0.270282 0.122907 -2.447478 59 42 42 
-0.272052 0.125317 -2.495468 66 48 52 
-0.266779 0.124504 -2.479264 72 65 61 
-0.263273 0.124504 -2.479264 119 76 65 
-0.259766 0.124504 -2.479264 125 91 78 
-0.252974 0.122907 -2.447478 141 87 93 
-0.249513 0.122907 -2.447478 78 95 94 
-0.361483 0.123401 -2.528521 79 78 73 
-0.357907 0.123401 -2.528521 79 79 78 
-0.354331 0.123401 -2.528521 76 80 78 
-0.350755 0.123401 -2.528521 77 80 75 
-0.347179 0.123401 -2.528521 78 80 81 
-0.343602 0.123401 -2.528521 77 83 82 
-0.340026 0.123401 -2.528521 76 83 84 
-0.336450 0.123401 -2.528521 75 84 78 
-0.332874 0.123401 -2.528521 76 78 78 
-0.329298 0.123401 -2.528521 75 79 80 
-0.325722 0.123401 -2.528521 74 80 80 
-0.317934 0.121788 -2.495468 77 80 80 
-0.284639 0.110258 -2.259211 77 78 87 
-0.158547 0.062112 -1.272689 80 56 33 
-0.112498 0.044578 -0.913413 36 29 23 
-0.079189 0.031744 -0.650437 35 22 23 
-0.083839 0.034003 -0.696727 25 22 24 
-0.089378 0.036680 -0.751588 95 33 25 
-0.088489 0.036753 -0.753070 70 51 37 
-0.086910 0.036536 -0.748640 48 63 59 
-0.085683 0.036465 -0.747175 28 57 60 
-0.084461 0.036394 -0.745716 35 30 24 
-0.076530 0.033393 -0.684241 40 35 32 
-0.110089 0.048652 -0.996884 91 48 35 
-0.270286 0.120997 -2.479264 116 77 55 
-0.266779 0.120997 -2.479264 150 83 67 
-0.263273 0.120997 -2.479264 127 92 72 
-0.254802 0.118685 -2.431889 141 95 84 
-0.243605 0.115022 -2.356831 144 118 103 
-0.228965 0.109609 -2.245921 255 146 108 
-0.361483 0.119825 -2.528521 79 80 83 
-0.357907 0.119825 -2.528521 80 81 76 
-0.354331 0.119825 -2.528521 75 80 76 
-0.350755 0.119825 -2.528521 77 80 77 
-0.347179 0.119825 -2.528521 78 80 75 
-0.343602 0.119825 -2.528521 77 79 75 
-0.340026 0.119825 -2.528521 76 79 75 
-0.336450 0.119825 -2.528521 74 80 79 
-0.332874 0.119825 -2.528521 76 80 79 
-0.329298 0.119825 -2.528521 75 80 78 
-0.325722 0.119825 -2.528521 74 81 78 
-0.317934 0.118259 -2.495468 77 78 77 
-0.284639 0.107063 -2.259211 78 80 77 
-0.158547 0.060312 -1.272689 82 68 57 
-0.111962 0.043080 -0.909063 36 32 49 
-0.066883 0.026034 -0.549362 35 21 17 
-0.064984 0.025592 -0.540038 26 18 28 
-0.063859 0.025448 -0.536999 82 68 36 
-0.063457 0.025592 -0.540038 61 64 104 
-0.062604 0.025556 -0.539275 41 42 26 
-0.061236 0.025306 -0.533995 26 27 11 
-0.059565 0.024922 -0.525904 35 18 15 
-0.059065 0.025026 -0.528087 43 33 34 
-0.073329 0.031467 -0.664012 79 47 40 
-0.270286 0.117491 -2.479264 93 67 57 
-0.266779 0.117491 -2.479264 118 82 71 
-0.263273 0.117491 -2.479264 112 76 74 
-0.254802 0.115246 -2.431889 122 77 57 
-0.228115 0.104587 -2.206975 122 93 92 
-0.216244 0.100520 -2.121148 255 153 107 
-0.361483 0.116249 -2.528521 77 81 83 
-0.357907 0.116249 -2.528521 77 78 77 
-0.354331 0.116249 -2.528521 71 79 77 
-0.350755 0.116249 -2.528521 74 80 79 
-0.347179 0.116249 -2.528521 77 79 77 
-0.343602 0.116249 -2.528521 77 78 77 
-0.340026 0.116249 -2.528521 78 77 78 
-0.336450 0.116249 -2.528521 78 79 78 
-0.332874 0.116249 -2.528521 80 79 79 
-0.329298 0.116249 -2.528521 78 81 79 
-0.325722 0.116249 -2.528521 76 81 79 
-0.317934 0.114729 -2.495468 79 80 79 
-0.282965 0.103256 -2.245921 80 79 76 
-0.155947 0.057553 -1.251825 87 78 57 
-0.111696 0.041695 -0.906904 35 49 51 
-0.066787 0.025221 -0.548573 34 21 17 
-0.064710 0.024723 -0.537756 28 21 24 
-0.063413 0.024516 -0.533249 39 36 26 
-0.062572 0.024482 -0.532506 34 48 45 
-0.061391 0.024312 -0.528818 25 23 22 
-0.059978 0.024046 -0.523023 20 16 16 
-0.058915 0.023915 -0.520173 31 22 23 
-0.058579 0.024079 -0.523740 49 33 30 
-0.071464 0.029752 -0.647130 57 37 32 
-0.263443 0.111099 -2.416498 62 39 41 
-0.258390 0.110400 -2.401299 70 50 45 
-0.258242 0.111806 -2.431889 93 56 47 
-0.250025 0.109710 -2.386292 99 60 52 
-0.228115 0.101466 -2.206975 96 77 77 
-0.210400 0.094884 -2.063820 250 131 88 
-0.361483 0.112673 -2.528521 74 79 83 
-0.357907 0.112673 -2.528521 74 77 77 
-0.354331 0.112673 -2.528521 73 78 77 
-0.350755 0.112673 -2.528521 74 79 80 
-0.347179 0.112673 -2.528521 75 77 80 
-0.343602 0.112673 -2.528521 76 77 79 
-0.340026 0.112673 -2.528521 77 79 80 
-0.336450 0.112673 -2.528521 77 80 79 
-0.332874 0.112673 -2.528521 76 78 78 
-0.329298 0.112673 -2.528521 76 77 80 
-0.325722 0.112673 -2.528521 76 79 80 
-0.311820 0.109061 -2.447478 73 79 80 
-0.258624 0.091471 -2.052724 64 79 76 
-0.152939 0.054706 -1.227674 53 61 61 
-0.110126 0.039844 -0.894161 16 31 55 
-0.065378 0.023929 -0.536999 21 22 16 
-0.064619 0.023929 -0.536999 28 21 22 
-0.062886 0.023564 -0.528818 23 20 22 
-0.061039 0.023148 -0.519465 23 17 21 
-0.059897 0.022991 -0.515955 19 17 17 
-0.059168 0.022991 -0.515955 34 18 16 
-0.058835 0.023148 -0.519465 42 29 26 
-0.058499 0.023306 -0.523023 57 35 29 
-0.063120 0.025469 -0.571567 58 35 30 
-0.126902 0.051871 -1.164045 59 36 35 
-0.113179 0.046869 -1.051809 61 35 38 
-0.114208 0.047926 -1.075512 65 42 39 
-0.080329 0.034164 -0.766680 74 49 49 
-0.044242 0.019074 -0.428034 81 61 71 
-0.043588 0.019052 -0.427555 186 110 82 
-0.361483 0.109096 -2.528521 73 78 75 
-0.357907 0.109096 -2.528521 73 77 80 
-0.354331 0.109096 -2.528521 74 79 81 
-0.350755 0.109096 -2.528521 74 80 80 
-0.347179 0.109096 -2.528521 75 78 77 
-0.343602 0.109096 -2.528521 76 75 76 
-0.340026 0.109096 -2.528521 76 76 80 
-0.336450 0.109096 -2.528521 76 76 77 
-0.332874 0.109096 -2.528521 75 78 76 
-0.329298 0.109096 -2.528521 75 77 83 
-0.325722 0.109096 -2.528521 76 79 73 
-0.293036 0.099238 -2.300040 71 78 70 
-0.238138 0.081552 -1.890132 61 66 61 
-0.102288 0.035427 -0.821090 44 31 30 
-0.081923 0.028700 -0.665168 15 19 20 
-0.062395 0.022112 -0.512492 19 14 12 
-0.061670 0.022112 -0.512492 26 18 19 
-0.060782 0.022053 -0.511120 24 20 21 
-0.060220 0.022112 -0.512492 23 18 13 
-0.059655 0.022172 -0.513872 22 16 16 
-0.059168 0.022262 -0.515955 37 23 17 
-0.058835 0.022413 -0.519465 44 31 28 
-0.058499 0.022567 -0.523023 60 34 31 
-0.060931 0.023806 -0.551744 59 35 32 
-0.058874 0.023301 -0.540038 60 37 33 
-0.057380 0.023008 -0.533249 63 36 36 
-0.056944 0.023137 -0.536245 63 37 37 
-0.056264 0.023170 -0.536999 68 43 40 
-0.044193 0.018447 -0.427555 71 54 53 
-0.043588 0.018447 -0.427555 147 76 59 
-0.361483 0.105520 -2.528521 76 77 76 
-0.357907 0.105520 -2.528521 76 77 79 
-0.354331 0.105520 -2.528521 69 78 79 
-0.350755 0.105520 -2.528521 71 76 79 
-0.347179 0.105520 -2.528521 73 76 77 
-0.343602 0.105520 -2.528521 70 74 77 
-0.340026 0.105520 -2.528521 71 76 77 
-0.336450 0.105520 -2.528521 71 76 76 
-0.332874 0.105520 -2.528521 73 76 76 
-0.329298 0.105520 -2.528521 72 79 77 
-0.325722 0.105520 -2.528521 72 78 75 
-0.223137 0.073090 -1.751407 69 75 74 
-0.074006 0.024513 -0.587395 53 49 44 
-0.063844 0.021387 -0.512492 22 24 26 
-0.061150 0.020720 -0.496498 15 17 19 
-0.061406 0.021048 -0.504368 17 14 15 
-0.061670 0.021387 -0.512492 21 15 18 
-0.060700 0.021302 -0.510437 25 20 18 
-0.060139 0.021359 -0.511805 26 20 16 
-0.059575 0.021416 -0.513181 28 20 19 
-0.059168 0.021532 -0.515955 42 23 20 
-0.058835 0.021678 -0.519465 49 31 25 
-0.058499 0.021827 -0.523023 65 35 30 
-0.060755 0.022959 -0.550154 60 34 33 
-0.058791 0.022505 -0.539275 61 39 33 
-0.057220 0.022192 -0.531764 64 39 35 
-0.056547 0.022223 -0.532506 60 37 35 
-0.056743 0.022601 -0.541570 61 38 34 
-0.044193 0.017843 -0.427555 58 41 39 
-0.043588 0.017843 -0.427555 101 50 41 
-0.361483 0.101944 -2.528521 72 76 78 
-0.355552 0.101273 -2.511886 73 78 76 
-0.352000 0.101273 -2.511886 69 76 76 
-0.350755 0.101944 -2.528521 71 76 77 
-0.347179 0.101944 -2.528521 73 75 78 
-0.341342 0.101273 -2.511886 71 75 78 
-0.337789 0.101273 -2.511886 71 76 75 
-0.334237 0.101273 -2.511886 72 76 75 
-0.330684 0.101273 -2.511886 72 77 75 
-0.329298 0.101944 -2.528521 72 77 72 
-0.321464 0.100612 -2.495468 71 78 76 
-0.167738 0.053081 -1.316575 66 73 77 
-0.069115 0.022117 -0.548573 52 43 30 
-0.061771 0.019992 -0.495853 20 20 21 
-0.060833 0.019914 -0.493928 20 16 16 
-0.061406 0.020335 -0.504368 19 17 16 
-0.061587 0.020635 -0.511805 17 14 17 
-0.060619 0.020552 -0.509755 28 17 17 
-0.060139 0.020635 -0.511805 29 23 17 
-0.059575 0.020690 -0.513181 32 22 20 
-0.059008 0.020746 -0.514564 48 24 21 
-0.058676 0.020887 -0.518055 51 28 24 
-0.058339 0.021029 -0.521594 60 33 30 
-0.060320 0.022022 -0.546218 58 33 33 
-0.058708 0.021712 -0.538514 60 35 33 
-0.057140 0.021410 -0.531025 68 38 34 
-0.056389 0.021410 -0.531025 58 37 35 
-0.056423 0.021712 -0.538514 57 35 33 
-0.044242 0.017257 -0.428034 54 35 36 
-0.043588 0.017238 -0.427555 55 39 37 
-0.339031 0.092258 -2.371470 69 75 75 
-0.342050 0.094010 -2.416498 71 73 74 
-0.338633 0.094010 -2.416498 67 73 74 
-0.333107 0.093419 -2.401299 69 74 73 
-0.329711 0.093419 -2.401299 71 73 72 
-0.328380 0.094010 -2.416498 69 74 72 
-0.322918 0.093419 -2.401299 69 74 73 
-0.319522 0.093419 -2.401299 70 74 73 
-0.316126 0.093419 -2.401299 69 74 73 
-0.310775 0.092835 -2.386292 68 74 76 
-0.305490 0.092258 -2.371470 67 74 73 
-0.126677 0.038681 -0.994288 63 69 71 
-0.064396 0.019884 -0.511120 51 43 34 
-0.061215 0.019117 -0.491386 21 23 29 
-0.060754 0.019191 -0.493290 23 22 25 
-0.061244 0.019570 -0.503039 24 22 18 
-0.060215 0.019467 -0.500402 27 20 20 
-0.060138 0.019674 -0.505704 35 19 21 
-0.060059 0.019884 -0.511120 33 21 19 
-0.059575 0.019964 -0.513181 25 19 18 
-0.059008 0.020018 -0.514564 40 21 17 
-0.058517 0.020100 -0.516653 43 27 24 
-0.057553 0.020018 -0.514564 54 29 27 
-0.058643 0.020659 -0.531025 54 32 28 
-0.056478 0.020154 -0.518055 56 33 29 
-0.055444 0.020045 -0.515259 61 33 32 
-0.055312 0.020264 -0.520882 59 35 33 
-0.055102 0.020459 -0.525904 58 36 36 
-0.054508 0.020516 -0.527357 55 36 34 
-0.043588 0.016633 -0.427555 58 37 33 
-0.284292 0.074550 -1.988576 50 59 64 
-0.289005 0.076543 -2.041747 50 58 63 
-0.289211 0.077371 -2.063820 47 58 62 
-0.287848 0.077791 -2.075036 47 59 61 
-0.284913 0.077791 -2.075036 47 60 60 
-0.280454 0.077371 -2.063820 50 60 60 
-0.279043 0.077791 -2.075036 52 61 61 
-0.274616 0.077371 -2.063820 55 59 61 
-0.270236 0.076955 -2.052724 52 59 61 
-0.271716 0.078216 -2.086375 52 60 59 
-0.192878 0.056132 -1.497281 52 60 58 
-0.099071 0.029152 -0.777610 52 55 57 
-0.063295 0.018834 -0.502377 46 41 31 
-0.061058 0.018374 -0.490124 27 27 31 
-0.060676 0.018469 -0.492654 31 28 31 
-0.060447 0.018613 -0.496498 38 26 22 
-0.059667 0.018589 -0.495853 59 27 24 
-0.059585 0.018784 -0.501059 53 31 24 
-0.059422 0.018958 -0.505704 43 20 23 
-0.059416 0.019187 -0.511805 8 13 16 
-0.058929 0.019265 -0.513872 22 12 12 
-0.058438 0.019343 -0.515955 28 20 13 
-0.057475 0.019265 -0.513872 45 22 18 
-0.057210 0.019421 -0.518055 49 26 20 
-0.055871 0.019213 -0.512492 51 27 24 
-0.054999 0.019161 -0.511120 55 28 25 
-0.054059 0.019085 -0.509076 63 33 26 
-0.054427 0.019474 -0.519465 62 36 31 
-0.053692 0.019474 -0.519465 58 37 33 
-0.046064 0.016939 -0.451842 59 37 34 
-0.159602 0.040274 -1.116394 42 46 46 
-0.170486 0.043450 -1.204437 42 45 47 
-0.166161 0.042775 -1.185735 40 47 47 
-0.170302 0.044288 -1.227674 40 47 45 
-0.168566 0.044288 -1.227674 40 45 46 
-0.167368 0.044431 -1.231634 40 45 47 
-0.165093 0.044288 -1.227674 41 45 48 
-0.163357 0.044288 -1.227674 42 45 48 
-0.162667 0.044575 -1.235620 43 46 48 
-0.158357 0.043865 -1.215945 43 46 44 
-0.147700 0.041362 -1.146567 45 46 45 
-0.076847 0.021759 -0.603170 43 41 46 
-0.062963 0.018028 -0.499747 39 30 28 
-0.060901 0.017636 -0.488869 25 26 33 
-0.060210 0.017636 -0.488869 32 31 36 
-0.059595 0.017658 -0.489496 39 28 24 
-0.058978 0.017681 -0.490124 60 29 26 
-0.058813 0.017841 -0.494568 62 33 26 
-0.058722 0.018028 -0.499747 57 33 24 
-0.059257 0.018414 -0.510437 40 21 16 
-0.058929 0.018538 -0.513872 43 18 10 
-0.058359 0.018588 -0.515259 40 17 10 
-0.057475 0.018538 -0.513872 19 18 15 
-0.057133 0.018663 -0.517353 41 20 18 
-0.055278 0.018292 -0.507047 41 23 22 
-0.054416 0.018243 -0.505704 34 22 23 
-0.053630 0.018219 -0.505035 33 24 23 
-0.053126 0.018292 -0.507047 34 24 29 
-0.052830 0.018439 -0.511120 36 28 30 
-0.047995 0.016983 -0.470785 47 31 31 
-0.105374 0.025547 -0.737078 38 43 46 
-0.067980 0.016646 -0.480260 39 45 40 
-0.065973 0.016318 -0.470785 36 32 37 
-0.064748 0.016178 -0.466756 36 35 30 
-0.064801 0.016358 -0.471949 36 40 39 
-0.064054 0.016338 -0.471366 37 38 43 
-0.063940 0.016480 -0.475475 37 40 43 
-0.062798 0.016358 -0.471949 39 43 45 
-0.062131 0.016358 -0.471949 41 44 46 
-0.061540 0.016378 -0.472533 41 44 47 
-0.060348 0.016238 -0.468474 44 40 37 
-0.059906 0.016297 -0.470205 41 34 31 
-0.060968 0.016773 -0.483912 38 26 24 
-0.060668 0.016880 -0.486998 28 31 32 
-0.060056 0.016901 -0.487620 34 32 39 
-0.059291 0.016880 -0.486998 39 27 19 
-0.058752 0.016923 -0.488244 58 29 22 
-0.057913 0.016880 -0.486998 60 27 23 
-0.057889 0.017076 -0.492654 57 29 27 
-0.058552 0.017482 -0.504368 44 29 26 
-0.058146 0.017574 -0.507047 49 30 25 
-0.058202 0.017811 -0.513872 46 30 32 
-0.057244 0.017739 -0.511805 29 27 28 
-0.057133 0.017932 -0.517353 44 24 26 
-0.055204 0.017551 -0.506375 43 26 20 
-0.054200 0.017459 -0.503703 35 17 17 
-0.053488 0.017459 -0.503703 34 20 14 
-0.053056 0.017551 -0.506375 33 21 19 
-0.052830 0.017716 -0.511120 29 18 16 
-0.048293 0.016419 -0.473706 34 18 13 
-0.105374 0.024505 -0.737078 41 44 46 
-0.067980 0.015967 -0.480260 40 41 41 
-0.064853 0.015386 -0.462796 14 31 38 
-0.063889 0.015312 -0.460563 15 18 33 
-0.063010 0.015257 -0.458902 18 26 33 
-0.062436 0.015275 -0.459454 26 26 32 
-0.061564 0.015220 -0.457802 28 32 34 
-0.061283 0.015312 -0.460563 32 35 36 
-0.060413 0.015257 -0.458902 40 39 37 
-0.059764 0.015257 -0.458902 41 43 42 
-0.059258 0.015293 -0.460008 44 35 35 
-0.058962 0.015386 -0.462796 34 29 30 
-0.058951 0.015556 -0.467900 34 23 31 
-0.060514 0.016150 -0.485759 38 31 29 
-0.059980 0.016191 -0.486998 38 31 27 
-0.059291 0.016191 -0.486998 41 21 20 
-0.058752 0.016232 -0.488244 54 25 25 
-0.057913 0.016191 -0.486998 53 25 29 
-0.057079 0.016150 -0.485759 53 28 31 
-0.056249 0.016109 -0.484526 53 28 28 
-0.055990 0.016232 -0.488244 61 30 25 
-0.056234 0.016507 -0.496498 59 33 29 
-0.056412 0.016768 -0.504368 41 30 27 
-0.056825 0.017107 -0.514564 48 28 25 
-0.055131 0.016813 -0.505704 46 31 26 
-0.054200 0.016746 -0.503703 33 24 23 
-0.053418 0.016724 -0.503039 33 19 20 
-0.053056 0.016835 -0.506375 30 24 21 
-0.052201 0.016790 -0.505035 18 18 24 
-0.048838 0.015927 -0.479055 17 14 28 
-0.105374 0.023462 -0.737078 43 44 48 
-0.067980 0.015288 -0.480260 40 40 41 
-0.064775 0.014714 -0.462236 32 33 37 
-0.063659 0.014608 -0.458902 31 29 37 
-0.062783 0.014555 -0.457253 27 26 25 
-0.062211 0.014573 -0.457802 22 19 18 
-0.061343 0.014520 -0.456161 23 23 23 
-0.061062 0.014608 -0.458902 28 27 26 
-0.060196 0.014555 -0.457253 36 34 29 
-0.059478 0.014538 -0.456706 37 35 39 
-0.058903 0.014555 -0.457253 36 31 33 
-0.058678 0.014661 -0.460563 29 24 28 
-0.058879 0.014876 -0.467328 29 32 34 
-0.060437 0.015443 -0.485142 36 33 27 
-0.059903 0.015482 -0.486378 36 25 21 
-0.059215 0.015482 -0.486378 37 27 21 
-0.058677 0.015522 -0.487620 39 31 26 
-0.057839 0.015482 -0.486378 64 32 31 
-0.057079 0.015463 -0.485759 66 30 32 
-0.056249 0.015423 -0.484526 59 30 29 
-0.055493 0.015404 -0.483912 69 31 26 
-0.055088 0.015482 -0.486378 70 35 29 
-0.054749 0.015581 -0.489496 72 32 27 
-0.054335 0.015662 -0.492019 51 29 25 
-0.054625 0.015950 -0.501059 47 30 27 
-0.053565 0.015846 -0.497792 45 27 24 
-0.053277 0.015971 -0.501717 37 25 21 
-0.045100 0.013702 -0.430447 39 19 21 
-0.044143 0.013595 -0.427077 56 28 35 
-0.043539 0.013595 -0.427077 54 49 51 
-0.105374 0.022420 -0.737078 43 45 36 
-0.067980 0.014608 -0.480260 40 40 41 
-0.064775 0.014060 -0.462236 36 37 40 
-0.063659 0.013959 -0.458902 34 34 36 
-0.062708 0.013892 -0.456706 28 26 32 
-0.062136 0.013908 -0.457253 23 29 28 
-0.061270 0.013859 -0.455617 23 32 38 
-0.060698 0.013875 -0.456161 28 33 36 
-0.060124 0.013892 -0.456706 36 33 36 
-0.059407 0.013875 -0.456161 36 33 28 
-0.058903 0.013908 -0.457253 33 25 26 
-0.058678 0.014009 -0.460563 28 28 22 
-0.058807 0.014198 -0.466756 28 36 43 
-0.060437 0.014757 -0.485142 34 34 32 
-0.059903 0.014794 -0.486378 37 26 22 
-0.059140 0.014776 -0.485759 37 28 26 
-0.058453 0.014776 -0.485759 36 31 27 
-0.057619 0.014738 -0.484526 53 35 27 
-0.056862 0.014719 -0.483912 56 35 29 
-0.056249 0.014738 -0.484526 59 33 28 
-0.055493 0.014719 -0.483912 67 34 26 
-0.054948 0.014757 -0.485142 69 39 31 
-0.054539 0.014832 -0.487620 71 36 31 
-0.053987 0.014870 -0.488869 58 30 32 
-0.053296 0.014870 -0.488869 55 30 25 
-0.053080 0.015005 -0.493290 51 27 22 
-0.052999 0.015181 -0.499094 43 22 18 
-0.044999 0.013064 -0.429479 44 20 19 
-0.044143 0.012991 -0.427077 52 37 93 
-0.043588 0.013005 -0.427555 145 113 189 
-0.105374 0.021378 -0.737078 38 44 39 
-0.067980 0.013929 -0.480260 38 40 42 
-0.064696 0.013390 -0.461677 29 39 41 
-0.063582 0.013294 -0.458351 27 34 32 
-0.062708 0.013246 -0.456706 24 26 29 
-0.062136 0.013262 -0.457253 28 23 25 
-0.061270 0.013214 -0.455617 28 30 32 
-0.060698 0.013230 -0.456161 30 32 32 
-0.059981 0.013214 -0.455617 36 32 32 
-0.059336 0.013214 -0.455617 35 27 28 
-0.058833 0.013246 -0.456706 19 25 29 
-0.058607 0.013342 -0.460008 24 28 30 
-0.058807 0.013537 -0.466756 26 29 38 
-0.060360 0.014053 -0.484526 30 30 39 
-0.059827 0.014089 -0.485759 39 30 43 
-0.058544 0.013947 -0.480865 40 30 30 
-0.058010 0.013982 -0.482079 29 26 26 
-0.057184 0.013947 -0.480865 31 20 18 
-0.056790 0.014017 -0.483300 35 27 28 
-0.056177 0.014035 -0.483912 61 32 26 
-0.055493 0.014035 -0.483912 65 31 24 
-0.054948 0.014071 -0.485142 67 38 33 
-0.054469 0.014124 -0.486998 70 40 33 
-0.053918 0.014161 -0.488244 68 41 35 
-0.053228 0.014161 -0.488244 67 38 27 
-0.052943 0.014270 -0.492019 59 31 26 
-0.052929 0.014456 -0.498442 50 27 23 
-0.044999 0.012456 -0.429479 49 28 30 
-0.044193 0.012400 -0.427555 50 45 43 
-0.043588 0.012400 -0.427555 228 133 56 
-0.079918 0.015422 -0.559014 39 42 44 
-0.067640 0.013183 -0.477856 35 40 44 
-0.064230 0.012645 -0.458351 33 38 44 
-0.063582 0.012645 -0.458351 31 34 28 
-0.062633 0.012585 -0.456161 21 29 25 
-0.062062 0.012600 -0.456706 32 22 20 
-0.061197 0.012555 -0.455073 35 22 26 
-0.060698 0.012585 -0.456161 39 27 27 
-0.059909 0.012555 -0.455073 31 26 29 
-0.059195 0.012540 -0.454532 30 29 26 
-0.058762 0.012585 -0.456161 33 32 31 
-0.058537 0.012676 -0.459454 33 35 36 
-0.058663 0.012846 -0.465618 34 36 36 
-0.059829 0.013250 -0.480260 35 33 44 
-0.058780 0.013167 -0.477258 33 35 55 
-0.058251 0.013200 -0.478454 31 25 33 
-0.057287 0.013134 -0.476068 8 19 26 
-0.056969 0.013217 -0.479055 15 10 14 
-0.056504 0.013266 -0.480865 18 22 28 
-0.056106 0.013334 -0.483300 56 32 26 
-0.055493 0.013351 -0.483912 58 33 23 
-0.054948 0.013384 -0.485142 61 37 33 
-0.054469 0.013436 -0.486998 73 39 34 
-0.053849 0.013453 -0.487620 69 41 35 
-0.053228 0.013470 -0.488244 67 36 28 
-0.052943 0.013574 -0.492019 54 30 27 
-0.052929 0.013751 -0.498442 56 29 24 
-0.044999 0.011849 -0.429479 58 28 30 
-0.044193 0.011796 -0.427555 75 27 35 
-0.043588 0.011796 -0.427555 95 81 40 
-0.066162 0.012113 -0.462796 39 39 40 
-0.065349 0.012084 -0.461677 34 37 37 
-0.063695 0.011897 -0.454532 33 34 35 
-0.062977 0.011883 -0.453991 30 29 23 
-0.062484 0.011911 -0.455073 20 19 30 
-0.061914 0.011925 -0.455617 32 30 38 
-0.061197 0.011911 -0.455073 35 30 28 
-0.060625 0.011925 -0.455617 36 20 27 
-0.059909 0.011911 -0.455073 29 27 24 
-0.059125 0.011883 -0.453991 28 31 36 
-0.058762 0.011940 -0.456161 33 35 41 
-0.058537 0.012026 -0.459454 33 34 50 
-0.058592 0.012172 -0.465051 33 33 25 
-0.059381 0.012476 -0.476662 34 27 23 
-0.058054 0.012338 -0.471366 29 29 19 
-0.057601 0.012384 -0.473119 27 21 15 
-0.057002 0.012399 -0.473706 8 10 13 
-0.056826 0.012508 -0.477856 15 8 7 
-0.056433 0.012571 -0.480260 18 22 24 
-0.056035 0.012634 -0.482689 57 31 24 
-0.055423 0.012650 -0.483300 58 32 23 
-0.054948 0.012698 -0.485142 60 36 31 
-0.054469 0.012747 -0.486998 70 38 31 
-0.053849 0.012763 -0.487620 68 40 31 
-0.053160 0.012763 -0.487620 66 35 29 
-0.052807 0.012845 -0.490754 44 29 27 
-0.052929 0.013046 -0.498442 52 26 25 
-0.044999 0.011241 -0.429479 54 27 21 
-0.044193 0.011191 -0.427555 64 27 23 
-0.043588 0.011191 -0.427555 97 45 22 
-0.065685 0.011376 -0.459454 29 31 31 
-0.064879 0.011349 -0.458351 20 26 31 
-0.063619 0.011241 -0.453991 11 20 31 
-0.062754 0.011201 -0.452378 10 21 19 
-0.062261 0.011228 -0.453452 15 18 26 
-0.061693 0.011241 -0.453991 28 33 34 
-0.060979 0.011228 -0.453452 29 22 24 
-0.060409 0.011241 -0.453991 14 20 28 
-0.059838 0.011254 -0.454532 20 25 32 
-0.059125 0.011241 -0.453991 22 26 36 
-0.058762 0.011295 -0.456161 24 27 37 
-0.058466 0.011362 -0.458902 30 23 40 
-0.058521 0.011501 -0.464485 31 27 25 
-0.059233 0.011773 -0.475475 28 21 22 
-0.057911 0.011642 -0.470205 21 17 18 
-0.057601 0.011714 -0.473119 18 13 13 
-0.057002 0.011729 -0.473706 9 9 12 
-0.056826 0.011832 -0.477856 13 9 10 
-0.056433 0.011891 -0.480260 15 23 27 
-0.056035 0.011951 -0.482689 59 33 25 
-0.055423 0.011967 -0.483300 58 31 22 
-0.054809 0.011982 -0.483912 59 34 29 
-0.054400 0.012043 -0.486378 67 37 30 
-0.053849 0.012074 -0.487620 66 40 32 
-0.053160 0.012074 -0.487620 65 37 30 
-0.052807 0.012151 -0.490754 29 30 27 
-0.052929 0.012341 -0.498442 46 22 23 
-0.044999 0.010634 -0.429479 50 24 23 
-0.044193 0.010586 -0.427555 54 27 30 
-0.043735 0.010622 -0.428996 80 38 41 
-0.065527 0.010701 -0.458351 26 25 15 
-0.064879 0.010701 -0.458351 27 21 19 
-0.063469 0.010574 -0.452914 22 20 23 
-0.062754 0.010561 -0.452378 20 14 12 
-0.062261 0.010586 -0.453452 15 12 20 
-0.061693 0.010599 -0.453991 20 19 32 
-0.060906 0.010574 -0.452914 20 25 21 
-0.060409 0.010599 -0.453991 19 28 28 
-0.059838 0.010611 -0.454532 27 30 39 
-0.059055 0.010586 -0.453452 30 33 36 
-0.058692 0.010637 -0.455617 40 31 35 
-0.058117 0.010649 -0.456161 27 27 33 
-0.058097 0.010765 -0.461119 23 27 25 
-0.057934 0.010857 -0.465051 25 22 21 
-0.057769 0.010950 -0.469050 14 15 15 
-0.057601 0.011045 -0.473119 9 9 11 
-0.057002 0.011059 -0.473706 9 8 11 
-0.056826 0.011156 -0.477856 33 11 11 
-0.056433 0.011212 -0.480260 42 25 28 
-0.055965 0.011254 -0.482079 62 34 26 
-0.055353 0.011269 -0.482689 49 28 21 
-0.054670 0.011269 -0.482689 46 31 28 
-0.054262 0.011326 -0.485142 65 35 29 
-0.053712 0.011355 -0.486378 64 38 32 
-0.053024 0.011355 -0.486378 65 38 30 
-0.052807 0.011457 -0.490754 69 35 28 
-0.052929 0.011637 -0.498442 64 34 24 
-0.044948 0.010015 -0.428996 63 24 25 
-0.044342 0.010015 -0.428996 81 42 32 
-0.043883 0.010049 -0.430447 217 90 43 
-0.065527 0.010052 -0.458351 26 31 35 
-0.064801 0.010040 -0.457802 28 29 33 
-0.063469 0.009933 -0.452914 24 28 31 
-0.062679 0.009910 -0.451842 22 20 22 
-0.062187 0.009933 -0.452914 16 19 23 
-0.061620 0.009945 -0.453452 18 14 25 
-0.060906 0.009933 -0.452914 19 18 23 
-0.060337 0.009945 -0.453452 20 24 24 
-0.059554 0.009921 -0.452378 26 28 24 
-0.058845 0.009910 -0.451842 28 31 34 
-0.058413 0.009945 -0.453452 37 35 36 
-0.058048 0.009992 -0.455617 27 29 41 
-0.058027 0.010101 -0.460563 23 26 32 
-0.057934 0.010199 -0.465051 24 25 29 
-0.057557 0.010249 -0.467328 16 17 24 
-0.057530 0.010363 -0.472533 13 11 11 
-0.056512 0.010300 -0.469627 17 11 15 
-0.056332 0.010389 -0.473706 36 20 22 
-0.056221 0.010493 -0.478454 45 32 26 
-0.055894 0.010559 -0.481471 59 34 26 
-0.055353 0.010586 -0.482689 51 28 26 
-0.054670 0.010586 -0.482689 48 25 21 
-0.054124 0.010613 -0.483912 58 32 24 
-0.053508 0.010626 -0.484526 58 32 28 
-0.053024 0.010667 -0.486378 59 33 32 
-0.052807 0.010763 -0.490754 64 37 32 
-0.052999 0.010946 -0.499094 61 38 34 
-0.045050 0.009430 -0.429962 60 36 34 
-0.044542 0.009451 -0.430933 80 38 38 
-0.043982 0.009462 -0.431420 200 106 26 
-0.065527 0.009404 -0.458351 46 35 34 
-0.064801 0.009393 -0.457802 25 31 32 
-0.063393 0.009281 -0.452378 22 29 32 
-0.062679 0.009270 -0.451842 21 23 23 
-0.062187 0.009292 -0.452914 27 26 25 
-0.061620 0.009304 -0.453452 19 26 29 
-0.060906 0.009292 -0.452914 17 17 19 
-0.060337 0.009304 -0.453452 26 21 23 
-0.059554 0.009281 -0.452378 20 24 29 
-0.058845 0.009270 -0.451842 18 28 27 
-0.058413 0.009304 -0.453452 23 28 30 
-0.058048 0.009348 -0.455617 24 27 36 
-0.057957 0.009438 -0.460008 24 25 29 
-0.057653 0.009495 -0.462796 17 26 29 
-0.056930 0.009484 -0.462236 18 24 28 
-0.056072 0.009449 -0.460563 19 17 23 
-0.055622 0.009484 -0.462236 32 24 25 
-0.055779 0.009624 -0.469050 45 29 27 
-0.056010 0.009780 -0.476662 51 31 26 
-0.055753 0.009854 -0.480260 55 34 25 
-0.055353 0.009903 -0.482689 51 32 24 
-0.054601 0.009891 -0.482079 50 26 23 
-0.053987 0.009903 -0.482689 49 27 23 
-0.053508 0.009941 -0.484526 52 28 22 
-0.052957 0.009966 -0.485759 53 30 25 
-0.052739 0.010056 -0.490124 62 32 27 
-0.053068 0.010253 -0.499747 60 35 31 
-0.045050 0.008822 -0.429962 59 34 44 
-0.044542 0.008841 -0.430933 79 75 79 
-0.043982 0.008851 -0.431420 200 134 168 
-0.065527 0.008756 -0.458351 48 35 33 
-0.064801 0.008745 -0.457802 24 32 33 
-0.063318 0.008631 -0.451842 24 26 34 
-0.062605 0.008621 -0.451308 23 21 24 
-0.062114 0.008642 -0.452378 24 28 27 
-0.061547 0.008652 -0.452914 25 28 33 
-0.060906 0.008652 -0.452914 25 19 15 
-0.060337 0.008662 -0.453452 18 22 21 
-0.059484 0.008631 -0.451842 25 26 33 
-0.058775 0.008621 -0.451308 27 23 21 
-0.058344 0.008652 -0.452914 17 22 25 
-0.057979 0.008693 -0.455073 22 25 34 
-0.057887 0.008777 -0.459454 24 26 28 
-0.057583 0.008830 -0.462236 36 26 29 
-0.056792 0.008809 -0.461119 43 25 30 
-0.056005 0.008787 -0.460008 48 27 29 
-0.055622 0.008830 -0.462236 55 34 29 
-0.055710 0.008949 -0.468474 54 30 29 
-0.055801 0.009072 -0.474884 54 32 26 
-0.055614 0.009151 -0.479055 59 34 26 
-0.055283 0.009209 -0.482079 57 32 24 
-0.054601 0.009209 -0.482079 57 31 23 
-0.053919 0.009209 -0.482079 43 29 23 
-0.053440 0.009244 -0.483912 44 26 21 
-0.052957 0.009279 -0.485759 43 26 23 
-0.052739 0.009363 -0.490124 50 28 25 
-0.053068 0.009547 -0.499747 62 31 29 
-0.045050 0.008213 -0.429962 68 41 43 
-0.044693 0.008260 -0.432397 123 84 70 
-0.044131 0.008269 -0.432887 213 157 148 
-0.065448 0.008098 -0.457802 50 36 37 
-0.064723 0.008088 -0.457253 23 29 30 
-0.063318 0.007992 -0.451842 24 26 18 
-0.062531 0.007974 -0.450775 23 22 29 
-0.061894 0.007974 -0.450775 24 24 29 
-0.061401 0.007992 -0.451842 25 29 31 
-0.060834 0.008002 -0.452378 26 22 17 
-0.060337 0.008021 -0.453452 17 16 21 
-0.059484 0.007992 -0.451842 25 27 30 
-0.058706 0.007974 -0.450775 29 27 33 
-0.058275 0.008002 -0.452378 20 22 32 
-0.057635 0.008002 -0.452378 23 25 31 
-0.057817 0.008117 -0.458902 24 25 18 
-0.057514 0.008166 -0.461677 31 23 23 
-0.056724 0.008147 -0.460563 41 30 38 
-0.056005 0.008137 -0.460008 46 37 32 
-0.055622 0.008176 -0.462236 54 34 31 
-0.055710 0.008287 -0.468474 54 33 28 
-0.055801 0.008400 -0.474884 55 33 28 
-0.055614 0.008474 -0.479055 61 31 28 
-0.055283 0.008527 -0.482079 58 32 30 
-0.054532 0.008516 -0.481471 57 33 29 
-0.053919 0.008527 -0.482079 50 29 27 
-0.053440 0.008560 -0.483912 50 26 20 
-0.052957 0.008592 -0.485759 49 27 18 
-0.052604 0.008647 -0.488869 54 27 18 
-0.046073 0.007675 -0.433871 62 31 20 
-0.045253 0.007640 -0.431908 66 40 24 
-0.044693 0.007648 -0.432397 111 36 25 
-0.044131 0.007657 -0.432887 114 63 28 
-0.065448 0.007450 -0.457802 50 34 35 
-0.064723 0.007441 -0.457253 12 26 31 
-0.063243 0.007345 -0.451308 20 21 21 
-0.062531 0.007336 -0.450775 21 26 31 
-0.061894 0.007336 -0.450775 27 28 31 
-0.061329 0.007345 -0.451308 25 29 32 
-0.060762 0.007353 -0.451842 24 20 17 
-0.060266 0.007371 -0.452914 12 16 22 
-0.059484 0.007353 -0.451842 24 27 36 
-0.058706 0.007336 -0.450775 30 31 29 
-0.058275 0.007362 -0.452378 32 25 27 
-0.057567 0.007353 -0.451842 28 23 23 
-0.057748 0.007459 -0.458351 26 20 17 
-0.057237 0.007477 -0.459454 17 18 18 
-0.056724 0.007495 -0.460563 34 19 21 
-0.056005 0.007486 -0.460008 44 27 27 
-0.055622 0.007522 -0.462236 53 34 28 
-0.055710 0.007624 -0.468474 56 34 28 
-0.055801 0.007728 -0.474884 58 33 29 
-0.055614 0.007796 -0.479055 64 33 29 
-0.055213 0.007836 -0.481471 60 31 28 
-0.054395 0.007816 -0.480260 57 34 28 
-0.053581 0.007796 -0.479055 57 33 27 
-0.053305 0.007855 -0.482689 55 30 24 
-0.052755 0.007875 -0.483912 54 30 26 
-0.049920 0.007550 -0.463921 55 31 27 
-0.045864 0.007029 -0.431908 61 33 26 
-0.045305 0.007037 -0.432397 65 35 63 
-0.044795 0.007053 -0.433379 95 98 61 
-0.044182 0.007053 -0.433379 53 54 44 
-0.065448 0.006803 -0.457802 49 33 34 
-0.064723 0.006795 -0.457253 21 27 31 
-0.063243 0.006706 -0.451308 27 26 23 
-0.062458 0.006691 -0.450244 28 27 34 
-0.061821 0.006691 -0.450244 25 28 33 
-0.061256 0.006698 -0.450775 23 28 33 
-0.060690 0.006706 -0.451308 22 22 16 
-0.060194 0.006722 -0.452378 30 19 21 
-0.059414 0.006706 -0.451308 30 31 41 
-0.058706 0.006698 -0.450775 31 30 27 
-0.058206 0.006714 -0.451842 24 23 24 
-0.057499 0.006706 -0.451308 22 19 17 
-0.057403 0.006770 -0.455617 21 16 16 
-0.057031 0.006803 -0.457802 22 15 16 
-0.056316 0.006795 -0.457253 20 15 14 
-0.055536 0.006778 -0.456161 18 15 25 
-0.055155 0.006811 -0.458351 40 26 26 
-0.055506 0.006936 -0.466756 48 32 27 
-0.055801 0.007057 -0.474884 54 33 29 
-0.055544 0.007110 -0.478454 65 35 29 
-0.055213 0.007155 -0.481471 64 37 28 
-0.054327 0.007128 -0.479657 64 34 28 
-0.053313 0.007083 -0.476662 64 34 28 
-0.052378 0.007048 -0.474294 65 35 26 
-0.051451 0.007013 -0.471949 64 35 28 
-0.046528 0.006425 -0.432397 67 36 29 
-0.045916 0.006425 -0.432397 87 37 26 
-0.045356 0.006433 -0.432887 89 103 83 
-0.044845 0.006447 -0.433871 255 187 91 
-0.044232 0.006447 -0.433871 152 161 96 
-0.065448 0.006155 -0.457802 48 31 35 
-0.064723 0.006148 -0.457253 23 30 33 
-0.063243 0.006068 -0.451308 28 28 29 
-0.062458 0.006054 -0.450244 29 28 30 
-0.061821 0.006054 -0.450244 26 28 30 
-0.061256 0.006061 -0.450775 24 29 31 
-0.060690 0.006068 -0.451308 23 24 29 
-0.060194 0.006082 -0.452378 31 25 27 
-0.059344 0.006061 -0.450775 31 29 20 
-0.058637 0.006054 -0.450244 31 24 21 
-0.058206 0.006075 -0.451842 23 23 21 
-0.057431 0.006061 -0.450775 22 19 20 
-0.057335 0.006119 -0.455073 21 19 18 
-0.056827 0.006133 -0.456161 22 16 16 
-0.055981 0.006111 -0.454532 20 15 12 
-0.055076 0.006082 -0.452378 18 14 13 
-0.054760 0.006119 -0.455073 33 15 13 
-0.055035 0.006223 -0.462796 39 24 15 
-0.055115 0.006307 -0.469050 44 30 30 
-0.054653 0.006330 -0.470785 64 37 31 
-0.055144 0.006465 -0.480865 64 39 31 
-0.054327 0.006449 -0.479657 65 37 32 
-0.053313 0.006409 -0.476662 67 37 33 
-0.052183 0.006353 -0.472533 69 39 33 
-0.048009 0.005921 -0.440377 71 41 36 
-0.046580 0.005820 -0.432887 71 40 36 
-0.046020 0.005827 -0.433379 121 49 20 
-0.045459 0.005834 -0.433871 157 128 164 
-0.044845 0.005834 -0.433871 255 241 188 
-0.044282 0.005840 -0.434365 215 245 255 
-0.065448 0.005508 -0.457802 48 35 39 
-0.064723 0.005501 -0.457253 22 31 36 
-0.063169 0.005423 -0.450775 25 25 27 
-0.062458 0.005417 -0.450244 25 29 29 
-0.061821 0.005417 -0.450244 35 28 28 
-0.061184 0.005417 -0.450244 33 29 26 
-0.060619 0.005423 -0.450775 33 27 25 
-0.060123 0.005436 -0.451842 28 26 25 
-0.059274 0.005417 -0.450244 29 24 23 
-0.058499 0.005404 -0.449184 30 24 22 
-0.057863 0.005404 -0.449184 21 21 21 
-0.057363 0.005417 -0.450244 21 17 20 
-0.057267 0.005469 -0.454532 19 18 16 
-0.056759 0.005482 -0.455617 21 17 15 
-0.055848 0.005456 -0.453452 20 18 14 
-0.055076 0.005443 -0.452378 19 16 15 
-0.054436 0.005443 -0.452378 18 15 15 
-0.053796 0.005443 -0.452378 24 14 15 
-0.053537 0.005482 -0.455617 28 23 19 
-0.053988 0.005595 -0.465051 67 30 21 
-0.054188 0.005685 -0.472533 67 37 30 
-0.054055 0.005742 -0.477258 69 38 31 
-0.053247 0.005728 -0.476068 70 41 32 
-0.052183 0.005685 -0.472533 74 42 37 
-0.048009 0.005298 -0.440377 77 44 37 
-0.046686 0.005220 -0.433871 73 45 41 
-0.046073 0.005220 -0.433871 142 64 52 
-0.045459 0.005220 -0.433871 205 164 188 
-0.044896 0.005226 -0.434365 255 247 215 
-0.044333 0.005232 -0.434859 255 255 253 
-0.065448 0.004860 -0.457802 55 37 42 
-0.064723 0.004855 -0.457253 22 33 39 
-0.063094 0.004780 -0.450244 29 26 26 
-0.062458 0.004780 -0.450244 31 26 29 
-0.061748 0.004775 -0.449713 28 25 27 
-0.061112 0.004775 -0.449713 27 23 20 
-0.060547 0.004780 -0.450244 27 22 23 
-0.059840 0.004775 -0.449713 25 22 24 
-0.059204 0.004775 -0.449713 26 23 25 
-0.058430 0.004763 -0.448656 26 24 22 
-0.057796 0.004763 -0.448656 23 23 22 
-0.057296 0.004775 -0.449713 23 20 19 
-0.057267 0.004826 -0.454532 24 18 15 
-0.056759 0.004837 -0.455617 22 17 14 
-0.055848 0.004814 -0.453452 20 15 15 
-0.055076 0.004803 -0.452378 17 16 16 
-0.054372 0.004797 -0.451842 21 15 16 
-0.053733 0.004797 -0.451842 19 16 15 
-0.053219 0.004808 -0.452914 16 12 16 
-0.052641 0.004814 -0.453452 20 18 17 
-0.052436 0.004855 -0.457253 30 22 28 
-0.051976 0.004872 -0.458902 38 34 29 
-0.051204 0.004860 -0.457802 71 40 30 
-0.051357 0.004937 -0.465051 75 45 35 
-0.048009 0.004675 -0.440377 81 48 36 
-0.046686 0.004606 -0.433871 96 53 40 
-0.046073 0.004606 -0.433871 178 79 55 
-0.045511 0.004612 -0.434365 255 188 187 
-0.044948 0.004617 -0.434859 255 255 215 
-0.044383 0.004622 -0.435355 255 255 249 
-0.065448 0.004213 -0.457802 56 44 67 
-0.064723 0.004208 -0.457253 24 40 59 
-0.063020 0.004138 -0.449713 30 27 21 
-0.062384 0.004138 -0.449713 32 22 18 
-0.061675 0.004134 -0.449184 27 19 17 
-0.061040 0.004134 -0.449184 26 17 15 
-0.060334 0.004129 -0.448656 25 18 17 
-0.059629 0.004124 -0.448130 25 18 18 
-0.058926 0.004119 -0.447604 25 18 19 
-0.058361 0.004124 -0.448130 25 19 18 
-0.057728 0.004124 -0.448130 23 19 17 
-0.057228 0.004134 -0.449184 23 19 16 
-0.057199 0.004178 -0.453991 24 18 19 
-0.056759 0.004193 -0.455617 22 18 19 
-0.055848 0.004173 -0.453452 21 16 18 
-0.055076 0.004163 -0.452378 18 17 13 
-0.054372 0.004158 -0.451842 22 14 13 
-0.053733 0.004158 -0.451842 20 15 14 
-0.053093 0.004158 -0.451842 18 14 14 
-0.052454 0.004158 -0.451842 22 14 13 
-0.051754 0.004153 -0.451308 27 15 12 
-0.051176 0.004158 -0.451842 31 18 12 
-0.050899 0.004188 -0.455073 48 25 13 
-0.051232 0.004269 -0.463921 49 30 24 
-0.047954 0.004048 -0.439869 52 36 31 
-0.046686 0.003993 -0.433871 66 45 36 
-0.046073 0.003993 -0.433871 154 89 54 
-0.045511 0.003997 -0.434365 255 207 188 
-0.044948 0.004002 -0.434859 255 255 214 
-0.044434 0.004011 -0.435852 255 255 235 
-0.063176 0.003442 -0.441906 41 38 48 
-0.064492 0.003548 -0.455617 43 35 44 
-0.063020 0.003502 -0.449713 35 22 19 
-0.062091 0.003486 -0.447604 30 21 17 
-0.061386 0.003482 -0.447080 27 18 17 
-0.060825 0.003486 -0.447604 24 16 15 
-0.060051 0.003478 -0.446557 22 16 17 
-0.059559 0.003486 -0.447604 23 16 17 
-0.058857 0.003482 -0.447080 22 17 19 
-0.058293 0.003486 -0.447604 21 18 18 
-0.057728 0.003490 -0.448130 23 17 17 
-0.057228 0.003498 -0.449184 23 16 17 
-0.057199 0.003536 -0.453991 22 16 18 
-0.056759 0.003548 -0.455617 23 17 18 
-0.055848 0.003532 -0.453452 23 17 15 
-0.055076 0.003523 -0.452378 22 16 16 
-0.054372 0.003519 -0.451842 22 17 16 
-0.053733 0.003519 -0.451842 21 16 15 
-0.053093 0.003519 -0.451842 19 15 17 
-0.052392 0.003515 -0.451308 22 15 17 
-0.051754 0.003515 -0.451308 22 15 14 
-0.051176 0.003519 -0.451842 21 16 15 
-0.050838 0.003540 -0.454532 25 15 15 
-0.049546 0.003494 -0.448656 26 17 19 
-0.047300 0.003379 -0.433871 28 20 22 
-0.046686 0.003379 -0.433871 44 28 28 
-0.046073 0.003379 -0.433871 135 88 94 
-0.045563 0.003387 -0.434859 255 231 197 
-0.044999 0.003391 -0.435355 255 255 221 
-0.044434 0.003394 -0.435852 255 255 226 
-0.061747 0.002753 -0.431908 54 28 24 
-0.062551 0.002817 -0.441906 32 27 24 
-0.063020 0.002866 -0.449713 33 21 16 
-0.062019 0.002850 -0.447080 32 19 16 
-0.061315 0.002846 -0.446557 26 18 16 
-0.060612 0.002843 -0.446036 24 18 15 
-0.059981 0.002843 -0.446036 21 16 16 
-0.059350 0.002843 -0.446036 22 15 16 
-0.058788 0.002846 -0.446557 22 15 20 
-0.058225 0.002850 -0.447080 23 18 17 
-0.057660 0.002853 -0.447604 22 17 17 
-0.057161 0.002860 -0.448656 22 17 17 
-0.057199 0.002894 -0.453991 22 17 18 
-0.056759 0.002904 -0.455617 25 18 18 
-0.055848 0.002890 -0.453452 23 16 15 
-0.055076 0.002883 -0.452378 21 16 17 
-0.054372 0.002880 -0.451842 24 17 17 
-0.053733 0.002880 -0.451842 25 17 16 
-0.053093 0.002880 -0.451842 26 16 18 
-0.052085 0.002860 -0.448656 23 16 18 
-0.049982 0.002778 -0.435852 24 17 14 
-0.049141 0.002765 -0.433871 24 18 18 
-0.048527 0.002765 -0.433871 34 23 20 
-0.047914 0.002765 -0.433871 34 25 28 
-0.047300 0.002765 -0.433871 30 29 28 
-0.046686 0.002765 -0.433871 91 42 35 
-0.046125 0.002769 -0.434365 160 155 116 
-0.045563 0.002772 -0.434859 255 242 195 
-0.044999 0.002775 -0.435355 255 255 219 
-0.044434 0.002778 -0.435852 255 255 227 
-0.061747 0.002142 -0.431908 58 74 39 
-0.062551 0.002192 -0.441906 30 19 22 
-0.062724 0.002220 -0.447604 32 20 19 
-0.061946 0.002215 -0.446557 32 19 17 
-0.061243 0.002212 -0.446036 25 17 17 
-0.060541 0.002210 -0.445515 24 18 17 
-0.059911 0.002210 -0.445515 21 16 16 
-0.059350 0.002212 -0.446036 22 14 16 
-0.058720 0.002212 -0.446036 23 15 11 
-0.058089 0.002212 -0.446036 23 17 17 
-0.057660 0.002220 -0.447604 22 18 18 
-0.057094 0.002222 -0.448130 22 18 17 
-0.057199 0.002252 -0.453991 22 18 17 
-0.056691 0.002257 -0.455073 25 18 17 
-0.055848 0.002249 -0.453452 24 17 19 
-0.055076 0.002244 -0.452378 22 16 17 
-0.054307 0.002238 -0.451308 24 17 17 
-0.053479 0.002230 -0.449713 24 18 17 
-0.050924 0.002149 -0.433379 25 18 18 
-0.050197 0.002144 -0.432397 27 18 18 
-0.049755 0.002152 -0.433871 43 20 16 
-0.049141 0.002152 -0.433871 67 33 31 
-0.048527 0.002152 -0.433871 106 75 38 
-0.047914 0.002152 -0.433871 104 78 80 
-0.047300 0.002152 -0.433871 103 79 54 
-0.046739 0.002154 -0.434365 160 89 53 
-0.046178 0.002157 -0.434859 199 179 186 
-0.045563 0.002157 -0.434859 255 248 202 
-0.044999 0.002159 -0.435355 255 255 211 
-0.044434 0.002162 -0.435852 255 255 232 
-0.061747 0.001531 -0.431908 69 65 39 
-0.062551 0.001567 -0.441906 28 22 21 
-0.062651 0.001585 -0.447080 30 22 18 
-0.061946 0.001583 -0.446557 29 18 17 
-0.061243 0.001581 -0.446036 24 16 16 
-0.060541 0.001579 -0.445515 24 16 15 
-0.059911 0.001579 -0.445515 24 16 15 
-0.059281 0.001579 -0.445515 22 14 15 
-0.058720 0.001581 -0.446036 23 15 14 
-0.058089 0.001581 -0.446036 25 16 17 
-0.057592 0.001585 -0.447080 24 19 18 
-0.057094 0.001589 -0.448130 24 17 18 
-0.057199 0.001609 -0.453991 23 18 18 
-0.056691 0.001613 -0.455073 25 18 18 
-0.055782 0.001606 -0.452914 25 17 18 
-0.054431 0.001585 -0.447080 24 18 18 
-0.052809 0.001556 -0.438858 22 19 19 
-0.051304 0.001529 -0.431420 22 19 19 
-0.050694 0.001529 -0.431420 23 17 24 
-0.050197 0.001533 -0.432397 19 31 28 
-0.049698 0.001536 -0.433379 51 43 79 
-0.049141 0.001538 -0.433871 105 103 92 
-0.048527 0.001538 -0.433871 166 127 97 
-0.047968 0.001540 -0.434365 161 137 111 
-0.047354 0.001540 -0.434365 151 139 117 
-0.046793 0.001542 -0.434859 209 149 120 
-0.046230 0.001543 -0.435355 225 216 181 
-0.045667 0.001545 -0.435852 255 248 196 
-0.044999 0.001543 -0.435355 255 255 204 
-0.044434 0.001545 -0.435852 255 255 219 
-0.061747 0.000920 -0.431908 41 39 39 
-0.062551 0.000942 -0.441906 33 21 19 
-0.062651 0.000953 -0.447080 32 21 18 
-0.061874 0.000950 -0.446036 30 18 16 
-0.061243 0.000950 -0.446036 22 16 16 
-0.060541 0.000949 -0.445515 24 16 14 
-0.059911 0.000949 -0.445515 26 18 15 
-0.059281 0.000949 -0.445515 24 16 15 
-0.058651 0.000949 -0.445515 22 14 15 
-0.058089 0.000950 -0.446036 19 14 17 
-0.057525 0.000952 -0.446557 24 17 18 
-0.057094 0.000955 -0.448130 24 18 19 
-0.057131 0.000966 -0.453452 25 18 18 
-0.056556 0.000967 -0.453991 22 18 18 
-0.053436 0.000925 -0.433871 23 18 18 
-0.052524 0.000919 -0.431420 24 19 19 
-0.051914 0.000919 -0.431420 30 21 20 
-0.051304 0.000919 -0.431420 41 24 24 
-0.050694 0.000919 -0.431420 49 48 34 
-0.050254 0.000922 -0.432887 183 74 39 
-0.049698 0.000923 -0.433379 184 121 94 
-0.049141 0.000925 -0.433871 186 139 103 
-0.048527 0.000925 -0.433871 198 145 108 
-0.047968 0.000926 -0.434365 215 161 122 
-0.047408 0.000927 -0.434859 255 187 129 
-0.046846 0.000928 -0.435355 255 204 133 
-0.046230 0.000928 -0.435355 255 224 176 
-0.045667 0.000929 -0.435852 255 250 197 
-0.044999 0.000928 -0.435355 255 255 207 
-0.044434 0.000929 -0.435852 255 255 209 
-0.061747 0.000309 -0.431908 34 27 23 
-0.062191 0.000315 -0.439363 34 22 19 
-0.062578 0.000320 -0.446557 32 21 17 
-0.061874 0.000320 -0.446036 31 19 17 
-0.061243 0.000320 -0.446036 22 16 17 
-0.060541 0.000319 -0.445515 23 16 16 
-0.059911 0.000319 -0.445515 26 16 17 
-0.059281 0.000319 -0.445515 23 16 17 
-0.058651 0.000319 -0.445515 22 15 14 
-0.058021 0.000319 -0.445515 19 15 14 
-0.057525 0.000320 -0.446557 24 18 14 
-0.057094 0.000321 -0.448130 24 19 18 
-0.056995 0.000324 -0.452378 24 18 20 
-0.054734 0.000315 -0.439363 23 20 21 
-0.053134 0.000309 -0.431420 30 19 17 
-0.052524 0.000309 -0.431420 45 29 29 
-0.051914 0.000309 -0.431420 91 64 34 
-0.051304 0.000309 -0.431420 106 86 86 
-0.050751 0.000309 -0.431908 125 122 112 
-0.050254 0.000310 -0.432887 187 137 124 
-0.049698 0.000311 -0.433379 189 154 117 
-0.049085 0.000311 -0.433379 187 151 115 
-0.048527 0.000311 -0.433871 204 153 114 
-0.047914 0.000311 -0.433871 211 170 154 
-0.047354 0.000311 -0.434365 226 191 159 
-0.046846 0.000312 -0.435355 231 198 162 
-0.046230 0.000312 -0.435355 238 213 164 
-0.045667 0.000312 -0.435852 255 242 209 
-0.045050 0.000312 -0.435852 255 247 226 
-0.044434 0.000312 -0.435852 255 254 187 
-0.061538 -0.000300 -0.430447 32 23 23 
-0.061906 -0.000305 -0.437350 32 22 19 
-0.062359 -0.000311 -0.444996 31 19 17 
-0.061802 -0.000311 -0.445515 30 19 17 
-0.061171 -0.000311 -0.445515 23 17 17 
-0.060541 -0.000311 -0.445515 23 16 15 
-0.059841 -0.000311 -0.444996 23 17 16 
-0.059212 -0.000311 -0.444996 19 16 16 
-0.058583 -0.000311 -0.444996 20 15 14 
-0.058021 -0.000311 -0.445515 19 14 14 
-0.057525 -0.000312 -0.446557 25 15 14 
-0.056960 -0.000312 -0.447080 24 18 22 
-0.056860 -0.000315 -0.451308 22 18 19 
-0.054671 -0.000306 -0.438858 21 20 18 
-0.053134 -0.000301 -0.431420 42 27 37 
-0.052524 -0.000301 -0.431420 75 88 73 
-0.051914 -0.000301 -0.431420 192 124 90 
-0.051304 -0.000301 -0.431420 198 150 111 
