ply
        format ascii 1.0
        element vertex 1082
        property float x
        property float y
        property float z
        property uchar red
        property uchar green
        property uchar blue
        end_header
        -4.216397 2.295356 -38.180664 83 83 83 
-4.162397 2.295356 -38.180664 61 74 83 
-4.444886 2.550396 -42.422958 26 31 40 
-4.384886 2.550396 -42.422958 17 13 12 
-4.324886 2.550396 -42.422958 16 13 12 
-4.216397 2.241356 -38.180664 81 84 82 
-4.162397 2.241356 -38.180664 62 74 85 
-4.444886 2.490396 -42.422958 29 33 30 
-4.384886 2.490396 -42.422958 20 19 21 
-4.324886 2.490396 -42.422958 22 20 22 
-4.216397 2.187356 -38.180664 83 84 82 
-4.162397 2.187356 -38.180664 60 77 86 
-4.444886 2.430396 -42.422958 22 22 26 
-4.384886 2.430396 -42.422958 19 19 23 
-4.324886 2.430396 -42.422958 22 22 24 
-4.216397 2.133356 -38.180664 81 83 77 
-4.162397 2.133356 -38.180664 61 75 78 
-4.444886 2.370396 -42.422958 29 21 13 
-4.384886 2.370396 -42.422958 24 16 14 
-4.324886 2.370396 -42.422958 20 17 15 
-4.216397 2.079356 -38.180664 77 81 80 
-4.162397 2.079356 -38.180664 60 75 80 
-4.444886 2.310396 -42.422958 38 26 22 
-4.384886 2.310396 -42.422958 31 20 19 
-4.324886 2.310396 -42.422958 15 16 18 
-4.486397 2.025356 -38.180664 125 78 76 
-4.432397 2.025356 -38.180664 151 110 82 
-4.378397 2.025356 -38.180664 71 88 81 
-4.324397 2.025356 -38.180664 76 81 76 
-4.270397 2.025356 -38.180664 75 82 80 
-4.216397 2.025356 -38.180664 77 80 80 
-4.162397 2.025356 -38.180664 64 72 78 
-4.444886 2.250396 -42.422958 44 28 26 
-4.384886 2.250396 -42.422958 44 26 21 
-4.324886 2.250396 -42.422958 33 21 20 
-4.323997 1.792142 -34.709694 71 63 40 
-4.274907 1.792142 -34.709694 38 30 32 
-4.225816 1.792142 -34.709694 65 34 13 
-4.176725 1.792142 -34.709694 83 49 26 
-4.486397 1.971356 -38.180664 105 52 52 
-4.432397 1.971356 -38.180664 126 66 51 
-4.378397 1.971356 -38.180664 75 80 55 
-4.324397 1.971356 -38.180664 73 79 76 
-4.270397 1.971356 -38.180664 66 75 62 
-4.216397 1.971356 -38.180664 72 61 58 
-4.162397 1.971356 -38.180664 67 58 41 
-4.108397 1.971356 -38.180664 64 46 37 
-4.054397 1.971356 -38.180664 73 52 38 
-4.000397 1.971356 -38.180664 79 50 47 
-3.946397 1.971356 -38.180664 85 47 37 
-3.892397 1.971356 -38.180664 61 35 32 
-4.373088 1.743051 -34.709694 68 79 86 
-2.503367 1.009135 -20.095085 63 56 37 
-2.351199 0.958678 -19.090332 30 27 29 
-2.582443 1.065198 -21.211479 24 23 22 
-2.552443 1.065198 -21.211479 14 18 27 
-4.486397 1.917356 -38.180664 50 57 44 
-4.432397 1.917356 -38.180664 57 51 58 
-4.378397 1.917356 -38.180664 87 52 59 
-4.324397 1.917356 -38.180664 68 68 39 
-4.270397 1.917356 -38.180664 50 42 41 
-4.216397 1.917356 -38.180664 59 42 42 
-4.162397 1.917356 -38.180664 66 48 52 
-4.108397 1.917356 -38.180664 72 65 61 
-4.054397 1.917356 -38.180664 119 76 65 
-4.000397 1.917356 -38.180664 125 91 78 
-3.946397 1.917356 -38.180664 141 87 93 
-3.892397 1.917356 -38.180664 78 95 94 
-4.373088 1.693960 -34.709694 77 78 87 
-2.503367 0.980714 -20.095085 80 56 33 
-1.808614 0.716676 -14.684871 36 29 23 
-1.256324 0.503610 -10.319098 35 22 23 
-1.351293 0.548046 -11.229607 25 22 24 
-1.418874 0.582299 -11.931458 95 33 25 
-1.401999 0.582299 -11.931458 70 51 37 
-1.385124 0.582299 -11.931458 48 63 59 
-1.368249 0.582299 -11.931458 28 57 60 
-1.351374 0.582299 -11.931458 35 30 24 
-1.220114 0.532388 -10.908761 40 35 32 
-1.756832 0.776398 -15.908609 91 48 35 
-4.162397 1.863356 -38.180664 116 77 55 
-4.108397 1.863356 -38.180664 150 83 67 
-4.054397 1.863356 -38.180664 127 92 72 
-4.000397 1.863356 -38.180664 141 95 84 
-3.946397 1.863356 -38.180664 144 118 103 
-3.538543 1.693960 -34.709694 255 146 108 
-4.373088 1.644869 -34.709694 78 80 77 
-2.503367 0.952293 -20.095085 82 68 57 
-1.808614 0.695906 -14.684871 36 32 49 
-1.081023 0.420781 -8.879224 35 21 17 
-1.044181 0.411217 -8.677423 26 18 28 
-1.031908 0.411217 -8.677423 82 68 36 
-1.019636 0.411217 -8.677423 61 64 104 
-1.007363 0.411217 -8.677423 41 42 26 
-0.972977 0.402079 -8.484591 26 27 11 
-0.960977 0.402079 -8.484591 35 18 15 
-0.948977 0.402079 -8.484591 43 33 34 
-1.171221 0.502599 -10.605740 79 47 40 
-4.162397 1.809356 -38.180664 93 67 57 
-4.108397 1.809356 -38.180664 118 82 71 
-4.054397 1.809356 -38.180664 112 76 74 
-4.000397 1.809356 -38.180664 122 77 57 
-3.587634 1.644869 -34.709694 122 93 92 
-3.538543 1.644869 -34.709694 255 153 107 
-4.373088 1.595778 -34.709694 80 79 76 
-2.503367 0.923872 -20.095085 87 78 57 
-1.808614 0.675137 -14.684871 35 49 51 
-1.056454 0.398945 -8.677423 34 21 17 
-1.044181 0.398945 -8.677423 28 21 24 
-1.008977 0.390079 -8.484591 39 36 26 
-0.996977 0.390079 -8.484591 34 48 45 
-0.984977 0.390079 -8.484591 25 23 22 
-0.951825 0.381599 -8.300144 20 16 16 
-0.940086 0.381599 -8.300144 31 22 23 
-0.928347 0.381599 -8.300144 49 33 30 
-1.139567 0.474421 -10.319098 57 37 32 
-4.162397 1.755356 -38.180664 62 39 41 
-4.108397 1.755356 -38.180664 70 50 45 
-4.054397 1.755356 -38.180664 93 56 47 
-4.000397 1.755356 -38.180664 99 60 52 
-3.587634 1.595778 -34.709694 96 77 77 
-3.243664 1.462797 -31.817219 250 131 88 
-4.008664 1.417797 -31.817219 64 79 76 
-2.503367 0.895451 -20.095085 53 61 61 
-1.741629 0.630132 -14.140986 16 31 55 
-1.056454 0.386672 -8.677423 21 22 16 
-1.044181 0.386672 -8.677423 28 21 22 
-1.008977 0.378079 -8.484591 23 20 22 
-0.975304 0.369860 -8.300144 23 17 21 
-0.963565 0.369860 -8.300144 19 17 17 
-0.951825 0.369860 -8.300144 34 18 16 
-0.940086 0.369860 -8.300144 42 29 26 
-0.928347 0.369860 -8.300144 57 35 29 
-1.003904 0.405085 -9.090634 58 35 30 
-2.081198 0.850678 -19.090332 59 36 35 
-1.786260 0.739720 -16.600288 61 35 38 
-1.842908 0.773344 -17.354847 65 42 39 
-1.290451 0.548825 -12.316343 74 49 49 
-0.704714 0.303814 -6.817976 81 61 71 
-0.695071 0.303814 -6.817976 186 110 82 
-3.700305 1.267197 -29.369741 61 66 61 
-1.640137 0.568054 -13.165746 44 31 30 
-1.306221 0.457599 -10.605740 15 19 20 
-0.989021 0.350501 -8.123546 19 14 12 
-0.977531 0.350501 -8.123546 26 18 19 
-0.966042 0.350501 -8.123546 24 20 21 
-0.954553 0.350501 -8.123546 23 18 13 
-0.963565 0.358121 -8.300144 22 16 16 
-0.951825 0.358121 -8.300144 37 23 17 
-0.940086 0.358121 -8.300144 44 31 28 
-0.928347 0.358121 -8.300144 60 34 31 
-0.980558 0.383106 -8.879224 59 35 32 
-0.945999 0.374399 -8.677423 60 37 33 
-0.912977 0.366079 -8.484591 63 36 36 
-0.921454 0.374399 -8.677423 63 37 37 
-0.909181 0.374399 -8.677423 68 43 40 
-0.704714 0.294171 -6.817976 71 54 53 
-0.695071 0.294171 -6.817976 147 76 59 
-3.474569 1.138112 -27.271902 69 75 74 
-1.173268 0.388624 -9.312357 53 49 44 
-1.011999 0.339012 -8.123546 22 24 26 
-0.979666 0.331949 -7.954305 15 17 19 
-0.989021 0.339012 -8.123546 17 14 15 
-0.977531 0.339012 -8.123546 21 15 18 
-0.966042 0.339012 -8.123546 25 20 18 
-0.954553 0.339012 -8.123546 26 20 16 
-0.963565 0.346382 -8.300144 28 20 19 
-0.951825 0.346382 -8.300144 42 23 20 
-0.940086 0.346382 -8.300144 49 31 25 
-0.928347 0.346382 -8.300144 65 35 30 
-0.980558 0.370548 -8.879224 60 34 33 
-0.945999 0.362126 -8.677423 61 39 33 
-0.912977 0.354079 -8.484591 64 39 35 
-0.900977 0.354079 -8.484591 60 37 35 
-0.909181 0.362126 -8.677423 61 38 34 
-0.704714 0.284528 -6.817976 58 41 39 
-0.695071 0.284528 -6.817976 101 50 41 
-2.702443 0.855198 -21.211479 66 73 77 
-1.093272 0.349854 -8.677423 52 43 30 
-0.990916 0.320699 -7.954305 20 20 21 
-0.979666 0.320699 -7.954305 20 16 16 
-0.989021 0.327523 -8.123546 19 17 16 
-0.977531 0.327523 -8.123546 17 14 17 
-0.966042 0.327523 -8.123546 28 17 17 
-0.954553 0.327523 -8.123546 29 23 17 
-0.963565 0.334643 -8.300144 32 22 20 
-0.951825 0.334643 -8.300144 48 24 21 
-0.940086 0.334643 -8.300144 51 28 24 
-0.928347 0.334643 -8.300144 60 33 30 
-0.958272 0.349854 -8.677423 58 33 33 
-0.945999 0.349854 -8.677423 60 35 33 
-0.912977 0.342079 -8.484591 68 38 34 
-0.900977 0.342079 -8.484591 58 37 35 
-0.909181 0.349854 -8.677423 57 35 33 
-0.704714 0.274885 -6.817976 54 35 36 
-0.695071 0.274885 -6.817976 55 39 37 
-2.026832 0.618899 -15.908609 63 69 71 
-1.023489 0.316033 -8.123546 51 43 34 
-0.970693 0.303134 -7.791972 21 23 29 
-0.979666 0.309449 -7.954305 23 22 25 
-0.989021 0.316033 -8.123546 24 22 18 
-0.957166 0.309449 -7.954305 27 20 20 
-0.966042 0.316033 -8.123546 35 19 21 
-0.954553 0.316033 -8.123546 33 21 19 
-0.963565 0.322904 -8.300144 25 19 18 
-0.951825 0.322904 -8.300144 40 21 17 
-0.940086 0.322904 -8.300144 43 27 24 
-0.928347 0.322904 -8.300144 54 29 27 
-0.936977 0.330079 -8.484591 54 32 28 
-0.904869 0.322904 -8.300144 56 33 29 
-0.893130 0.322904 -8.300144 61 33 32 
-0.881391 0.322904 -8.300144 59 35 33 
-0.888977 0.330079 -8.484591 58 36 36 
-0.876977 0.330079 -8.484591 55 36 34 
-0.695071 0.265242 -6.817976 58 37 33 
-4.458664 1.192797 -31.817219 47 58 62 
-4.413664 1.192797 -31.817219 47 59 61 
-4.368664 1.192797 -31.817219 47 60 60 
-4.323664 1.192797 -31.817219 50 60 60 
-4.278664 1.192797 -31.817219 52 61 61 
-4.233665 1.192797 -31.817219 55 59 61 
-4.188664 1.192797 -31.817219 52 59 61 
-3.073998 0.894598 -23.862915 52 60 58 
-1.569160 0.461728 -12.316343 52 55 57 
-1.002166 0.298199 -7.954305 46 41 31 
-0.970693 0.292114 -7.791972 27 27 31 
-0.979666 0.298199 -7.954305 31 28 31 
-0.968416 0.298199 -7.954305 38 26 22 
-0.957166 0.298199 -7.954305 59 27 24 
-0.945916 0.298199 -7.954305 53 31 24 
-0.954553 0.304544 -8.123546 43 20 23 
-0.943063 0.304544 -8.123546 8 13 16 
-0.951825 0.311164 -8.300144 22 12 12 
-0.940086 0.311164 -8.300144 28 20 13 
-0.928347 0.311164 -8.300144 45 22 18 
-0.916608 0.311164 -8.300144 49 26 20 
-0.885616 0.304544 -8.123546 51 27 24 
-0.874127 0.304544 -8.123546 55 28 25 
-0.862638 0.304544 -8.123546 63 33 26 
-0.869652 0.311164 -8.300144 62 36 31 
-0.857912 0.311164 -8.300144 58 37 33 
-0.734415 0.270067 -7.203899 59 37 34 
-2.599237 0.655884 -18.181269 42 46 46 
-2.702199 0.688678 -19.090332 42 45 47 
-2.675199 0.688678 -19.090332 40 47 47 
-2.787577 0.724924 -20.095085 40 47 45 
-2.759156 0.724924 -20.095085 40 45 46 
-2.730735 0.724924 -20.095085 40 45 47 
-2.702314 0.724924 -20.095085 41 45 48 
-2.673893 0.724924 -20.095085 42 45 48 
-2.645472 0.724924 -20.095085 43 46 48 
-2.486199 0.688678 -19.090332 43 46 44 
-2.342094 0.655884 -18.181269 45 46 45 
-1.216099 0.344339 -9.545166 43 41 46 
-1.002166 0.286949 -7.954305 39 30 28 
-0.970693 0.281093 -7.791972 25 26 33 
-0.959673 0.281093 -7.791972 32 31 36 
-0.948653 0.281093 -7.791972 39 28 24 
-0.937632 0.281093 -7.791972 60 29 26 
-0.945916 0.286949 -7.954305 62 33 26 
-0.934666 0.286949 -7.954305 57 33 24 
-0.943063 0.293055 -8.123546 40 21 16 
-0.951825 0.299425 -8.300144 43 18 10 
-0.940086 0.299425 -8.300144 40 17 10 
-0.928347 0.299425 -8.300144 19 18 15 
-0.916608 0.299425 -8.300144 41 20 18 
-0.885616 0.293055 -8.123546 41 23 22 
-0.874127 0.293055 -8.123546 34 22 23 
-0.862638 0.293055 -8.123546 33 24 23 
-0.851148 0.293055 -8.123546 34 24 29 
-0.839659 0.293055 -8.123546 36 28 30 
-0.763215 0.270070 -7.486404 47 31 31 
-1.705749 0.413549 -11.931458 38 43 46 
-1.080879 0.264671 -7.636133 39 45 40 
-1.049098 0.259482 -7.486404 36 32 37 
-1.038509 0.259482 -7.486404 36 35 30 
-1.027921 0.259482 -7.486404 36 40 39 
-1.017333 0.259482 -7.486404 37 38 43 
-1.026879 0.264671 -7.636133 37 40 43 
-0.996156 0.259482 -7.486404 39 43 45 
-0.985568 0.259482 -7.486404 41 44 46 
-0.994479 0.264671 -7.636133 41 44 47 
-0.964392 0.259482 -7.486404 44 40 37 
-0.953803 0.259482 -7.486404 41 34 31 
-0.981714 0.270073 -7.791972 38 26 24 
-0.970693 0.270073 -7.791972 28 31 32 
-0.959673 0.270073 -7.791972 34 32 39 
-0.948653 0.270073 -7.791972 39 27 19 
-0.937632 0.270073 -7.791972 58 29 22 
-0.926612 0.270073 -7.791972 60 27 23 
-0.934666 0.275699 -7.954305 57 29 27 
-0.943063 0.281565 -8.123546 44 29 26 
-0.931574 0.281565 -8.123546 49 30 25 
-0.940086 0.287686 -8.300144 46 30 32 
-0.908595 0.281565 -8.123546 29 27 28 
-0.916608 0.287686 -8.300144 44 24 26 
-0.885616 0.281565 -8.123546 43 26 20 
-0.874127 0.281565 -8.123546 35 17 17 
-0.862638 0.281565 -8.123546 34 20 14 
-0.851148 0.281565 -8.123546 33 21 19 
-0.839659 0.281565 -8.123546 29 18 16 
-0.778479 0.264671 -7.636133 34 18 13 
-1.705749 0.396674 -11.931458 41 44 46 
-1.080879 0.253871 -7.636133 40 41 41 
-1.028923 0.244107 -7.342435 14 31 38 
-1.018538 0.244107 -7.342435 15 18 33 
-1.008153 0.244107 -7.342435 18 26 33 
-0.997769 0.244107 -7.342435 26 26 32 
-0.987384 0.244107 -7.342435 28 32 34 
-0.976999 0.244107 -7.342435 32 35 36 
-0.966615 0.244107 -7.342435 40 39 37 
-0.956230 0.244107 -7.342435 41 43 42 
-0.945846 0.244107 -7.342435 44 35 35 
-0.935461 0.244107 -7.342435 34 29 30 
-0.943215 0.248893 -7.486404 34 23 31 
-0.970693 0.259052 -7.791972 38 31 29 
-0.959673 0.259052 -7.791972 38 31 27 
-0.948653 0.259052 -7.791972 41 21 20 
-0.937632 0.259052 -7.791972 54 25 25 
-0.926612 0.259052 -7.791972 53 25 29 
-0.915591 0.259052 -7.791972 53 28 31 
-0.904571 0.259052 -7.791972 53 28 28 
-0.893550 0.259052 -7.791972 61 30 25 
-0.900916 0.264449 -7.954305 59 33 29 
-0.908595 0.270076 -8.123546 41 30 27 
-0.916608 0.275947 -8.300144 48 28 25 
-0.885616 0.270076 -8.123546 46 31 26 
-0.874127 0.270076 -8.123546 33 24 23 
-0.862638 0.270076 -8.123546 33 19 20 
-0.851148 0.270076 -8.123546 30 24 21 
-0.839659 0.270076 -8.123546 18 18 24 
-0.778479 0.253871 -7.636133 17 14 28 
-1.705749 0.379799 -11.931458 43 44 48 
-1.080879 0.243071 -7.636133 40 40 41 
-1.028923 0.233722 -7.342435 32 33 37 
-1.018538 0.233722 -7.342435 31 29 37 
-1.008153 0.233722 -7.342435 27 26 25 
-0.997769 0.233722 -7.342435 22 19 18 
-0.987384 0.233722 -7.342435 23 23 23 
-0.976999 0.233722 -7.342435 28 27 26 
-0.966615 0.233722 -7.342435 36 34 29 
-0.956230 0.233722 -7.342435 37 35 39 
-0.945846 0.233722 -7.342435 36 31 33 
-0.935461 0.233722 -7.342435 29 24 28 
-0.943215 0.238305 -7.486404 29 32 34 
-0.970693 0.248032 -7.791972 36 33 27 
-0.959673 0.248032 -7.791972 36 25 21 
-0.948653 0.248032 -7.791972 37 27 21 
-0.937632 0.248032 -7.791972 39 31 26 
-0.926612 0.248032 -7.791972 64 32 31 
-0.915591 0.248032 -7.791972 66 30 32 
-0.904571 0.248032 -7.791972 59 30 29 
-0.893550 0.248032 -7.791972 69 31 26 
-0.882530 0.248032 -7.791972 70 35 29 
-0.871510 0.248032 -7.791972 72 32 27 
-0.878416 0.253199 -7.954305 51 29 25 
-0.867166 0.253199 -7.954305 47 30 27 
-0.855916 0.253199 -7.954305 45 27 24 
-0.844666 0.253199 -7.954305 37 25 21 
-0.727345 0.220974 -6.941939 39 19 21 
-0.704714 0.217028 -6.817976 56 28 35 
-0.695071 0.217028 -6.817976 54 49 51 
-1.705749 0.362924 -11.931458 43 45 36 
-1.080879 0.232271 -7.636133 40 40 41 
-1.028923 0.223338 -7.342435 36 37 40 
-1.018538 0.223338 -7.342435 34 34 36 
-1.008153 0.223338 -7.342435 28 26 32 
-0.997769 0.223338 -7.342435 23 29 28 
-0.987384 0.223338 -7.342435 23 32 38 
-0.976999 0.223338 -7.342435 28 33 36 
-0.966615 0.223338 -7.342435 36 33 36 
-0.956230 0.223338 -7.342435 36 33 28 
-0.945846 0.223338 -7.342435 33 25 26 
-0.935461 0.223338 -7.342435 28 28 22 
-0.943215 0.227717 -7.486404 28 36 43 
-0.970693 0.237012 -7.791972 34 34 32 
-0.959673 0.237012 -7.791972 37 26 22 
-0.948653 0.237012 -7.791972 37 28 26 
-0.937632 0.237012 -7.791972 36 31 27 
-0.926612 0.237012 -7.791972 53 35 27 
-0.915591 0.237012 -7.791972 56 35 29 
-0.904571 0.237012 -7.791972 59 33 28 
-0.893550 0.237012 -7.791972 67 34 26 
-0.882530 0.237012 -7.791972 69 39 31 
-0.871510 0.237012 -7.791972 71 36 31 
-0.860489 0.237012 -7.791972 58 30 32 
-0.849469 0.237012 -7.791972 55 30 25 
-0.855916 0.241949 -7.954305 51 27 22 
-0.844666 0.241949 -7.954305 43 22 18 
-0.714357 0.207385 -6.817976 44 20 19 
-0.704714 0.207385 -6.817976 52 37 93 
-0.695071 0.207385 -6.817976 145 113 189 
-1.705749 0.346049 -11.931458 38 44 39 
-1.080879 0.221471 -7.636133 38 40 42 
-1.028923 0.212953 -7.342435 29 39 41 
-1.018538 0.212953 -7.342435 27 34 32 
-1.008153 0.212953 -7.342435 24 26 29 
-0.997769 0.212953 -7.342435 28 23 25 
-0.987384 0.212953 -7.342435 28 30 32 
-0.976999 0.212953 -7.342435 30 32 32 
-0.966615 0.212953 -7.342435 36 32 32 
-0.956230 0.212953 -7.342435 35 27 28 
-0.945846 0.212953 -7.342435 19 25 29 
-0.935461 0.212953 -7.342435 24 28 30 
-0.943215 0.217129 -7.486404 26 29 38 
-0.970693 0.225991 -7.791972 30 30 39 
-0.959673 0.225991 -7.791972 39 30 43 
-0.929679 0.221471 -7.636133 40 30 30 
-0.918879 0.221471 -7.636133 29 26 26 
-0.908079 0.221471 -7.636133 31 20 18 
-0.915591 0.225991 -7.791972 35 27 28 
-0.904571 0.225991 -7.791972 61 32 26 
-0.893550 0.225991 -7.791972 65 31 24 
-0.882530 0.225991 -7.791972 67 38 33 
-0.871510 0.225991 -7.791972 70 40 33 
-0.860489 0.225991 -7.791972 68 41 35 
-0.849469 0.225991 -7.791972 67 38 27 
-0.855916 0.230699 -7.954305 59 31 26 
-0.844666 0.230699 -7.954305 50 27 23 
-0.714357 0.197742 -6.817976 49 28 30 
-0.704714 0.197742 -6.817976 50 45 43 
-0.695071 0.197742 -6.817976 228 133 56 
-1.269395 0.244967 -8.879224 39 42 44 
-1.080879 0.210671 -7.636133 35 40 44 
-1.028923 0.202569 -7.342435 33 38 44 
-1.018538 0.202569 -7.342435 31 34 28 
-1.008153 0.202569 -7.342435 21 29 25 
-0.997769 0.202569 -7.342435 32 22 20 
-0.987384 0.202569 -7.342435 35 22 26 
-0.976999 0.202569 -7.342435 39 27 27 
-0.966615 0.202569 -7.342435 31 26 29 
-0.956230 0.202569 -7.342435 30 29 26 
-0.945846 0.202569 -7.342435 33 32 31 
-0.935461 0.202569 -7.342435 33 35 36 
-0.943215 0.206540 -7.486404 34 36 36 
-0.951279 0.210671 -7.636133 35 33 44 
-0.940479 0.210671 -7.636133 33 35 55 
-0.929679 0.210671 -7.636133 31 25 33 
-0.918879 0.210671 -7.636133 8 19 26 
-0.908079 0.210671 -7.636133 15 10 14 
-0.897279 0.210671 -7.636133 18 22 28 
-0.904571 0.214971 -7.791972 56 32 26 
-0.893550 0.214971 -7.791972 58 33 23 
-0.882530 0.214971 -7.791972 61 37 33 
-0.871510 0.214971 -7.791972 73 39 34 
-0.860489 0.214971 -7.791972 69 41 35 
-0.849469 0.214971 -7.791972 67 36 28 
-0.855916 0.219449 -7.954305 54 30 27 
-0.844666 0.219449 -7.954305 56 29 24 
-0.714357 0.188099 -6.817976 58 28 30 
-0.704714 0.188099 -6.817976 75 27 35 
-0.695071 0.188099 -6.817976 95 81 40 
-1.049692 0.192184 -7.342435 39 39 40 
-1.039307 0.192184 -7.342435 34 37 37 
-1.028923 0.192184 -7.342435 33 34 35 
-0.999320 0.188558 -7.203899 30 29 23 
-1.008153 0.192184 -7.342435 20 19 30 
-0.997769 0.192184 -7.342435 32 30 38 
-0.987384 0.192184 -7.342435 35 30 28 
-0.976999 0.192184 -7.342435 36 20 27 
-0.966615 0.192184 -7.342435 29 27 24 
-0.938188 0.188558 -7.203899 28 31 36 
-0.945846 0.192184 -7.342435 33 35 41 
-0.935461 0.192184 -7.342435 33 34 50 
-0.943215 0.195952 -7.486404 33 33 25 
-0.951279 0.199871 -7.636133 34 27 23 
-0.922039 0.195952 -7.486404 29 29 19 
-0.929679 0.199871 -7.636133 27 21 15 
-0.918879 0.199871 -7.636133 8 10 13 
-0.908079 0.199871 -7.636133 15 8 7 
-0.897279 0.199871 -7.636133 18 22 24 
-0.904571 0.203950 -7.791972 57 31 24 
-0.893550 0.203950 -7.791972 58 32 23 
-0.882530 0.203950 -7.791972 60 36 31 
-0.871510 0.203950 -7.791972 70 38 31 
-0.860489 0.203950 -7.791972 68 40 31 
-0.849469 0.203950 -7.791972 66 35 29 
-0.838448 0.203950 -7.791972 44 29 27 
-0.844666 0.208199 -7.954305 52 26 25 
-0.714357 0.178457 -6.817976 54 27 21 
-0.704714 0.178457 -6.817976 64 27 23 
-0.695071 0.178457 -6.817976 97 45 22 
-1.049692 0.181799 -7.342435 29 31 31 
-1.039307 0.181799 -7.342435 20 26 31 
-1.009509 0.178369 -7.203899 11 20 31 
-0.999320 0.178369 -7.203899 10 21 19 
-0.989132 0.178369 -7.203899 15 18 26 
-0.978943 0.178369 -7.203899 28 33 34 
-0.968754 0.178369 -7.203899 29 22 24 
-0.958565 0.178369 -7.203899 14 20 28 
-0.966615 0.181799 -7.342435 20 25 32 
-0.938188 0.178369 -7.203899 22 26 36 
-0.945846 0.181799 -7.342435 24 27 37 
-0.935461 0.181799 -7.342435 30 23 40 
-0.943215 0.185364 -7.486404 31 27 25 
-0.951279 0.189071 -7.636133 28 21 22 
-0.922039 0.185364 -7.486404 21 17 18 
-0.929679 0.189071 -7.636133 18 13 13 
-0.918879 0.189071 -7.636133 9 9 12 
-0.908079 0.189071 -7.636133 13 9 10 
-0.897279 0.189071 -7.636133 15 23 27 
-0.904571 0.192930 -7.791972 59 33 25 
-0.893550 0.192930 -7.791972 58 31 22 
-0.882530 0.192930 -7.791972 59 34 29 
-0.871510 0.192930 -7.791972 67 37 30 
-0.860489 0.192930 -7.791972 66 40 32 
-0.849469 0.192930 -7.791972 65 37 30 
-0.838448 0.192930 -7.791972 29 30 27 
-0.844666 0.196949 -7.954305 46 22 23 
-0.714357 0.168814 -6.817976 50 24 23 
-0.704714 0.168814 -6.817976 54 27 30 
-0.695071 0.168814 -6.817976 80 38 41 
-1.049692 0.171415 -7.342435 26 25 15 
-1.039307 0.171415 -7.342435 27 21 19 
-1.009509 0.168180 -7.203899 22 20 23 
-0.999320 0.168180 -7.203899 20 14 12 
-0.989132 0.168180 -7.203899 15 12 20 
-0.978943 0.168180 -7.203899 20 19 32 
-0.968754 0.168180 -7.203899 20 25 21 
-0.958565 0.168180 -7.203899 19 28 28 
-0.966615 0.171415 -7.342435 27 30 39 
-0.938188 0.168180 -7.203899 30 33 36 
-0.945846 0.171415 -7.342435 40 31 35 
-0.935461 0.171415 -7.342435 27 27 33 
-0.925076 0.171415 -7.342435 23 27 25 
-0.932627 0.174776 -7.486404 25 22 21 
-0.922039 0.174776 -7.486404 14 15 15 
-0.929679 0.178271 -7.636133 9 9 11 
-0.918879 0.178271 -7.636133 9 8 11 
-0.908079 0.178271 -7.636133 33 11 11 
-0.897279 0.178271 -7.636133 42 25 28 
-0.886479 0.178271 -7.636133 62 34 26 
-0.893550 0.181909 -7.791972 49 28 21 
-0.882530 0.181909 -7.791972 46 31 28 
-0.871510 0.181909 -7.791972 65 35 29 
-0.860489 0.181909 -7.791972 64 38 32 
-0.849469 0.181909 -7.791972 65 38 30 
-0.838448 0.181909 -7.791972 69 35 28 
-0.844666 0.185699 -7.954305 64 34 24 
-0.714357 0.159171 -6.817976 63 24 25 
-0.704714 0.159171 -6.817976 81 42 32 
-0.707709 0.162065 -6.941939 217 90 43 
-1.049692 0.161030 -7.342435 26 31 35 
-1.039307 0.161030 -7.342435 28 29 33 
-1.009509 0.157992 -7.203899 24 28 31 
-0.999320 0.157992 -7.203899 22 20 22 
-0.989132 0.157992 -7.203899 16 19 23 
-0.978943 0.157992 -7.203899 18 14 25 
-0.968754 0.157992 -7.203899 19 18 23 
-0.958565 0.157992 -7.203899 20 24 24 
-0.948377 0.157992 -7.203899 26 28 24 
-0.938188 0.157992 -7.203899 28 31 34 
-0.927999 0.157992 -7.203899 37 35 36 
-0.935461 0.161030 -7.342435 27 29 41 
-0.925076 0.161030 -7.342435 23 26 32 
-0.932627 0.164188 -7.486404 24 25 29 
-0.922039 0.164188 -7.486404 16 17 24 
-0.929679 0.167471 -7.636133 13 11 11 
-0.900862 0.164188 -7.486404 17 11 15 
-0.908079 0.167471 -7.636133 36 20 22 
-0.897279 0.167471 -7.636133 45 32 26 
-0.886479 0.167471 -7.636133 59 34 26 
-0.893550 0.170889 -7.791972 51 28 26 
-0.882530 0.170889 -7.791972 48 25 21 
-0.871510 0.170889 -7.791972 58 32 24 
-0.860489 0.170889 -7.791972 58 32 28 
-0.849469 0.170889 -7.791972 59 33 32 
-0.838448 0.170889 -7.791972 64 37 32 
-0.844666 0.174449 -7.954305 61 38 34 
-0.714357 0.149528 -6.817976 60 36 34 
-0.717527 0.152247 -6.941939 80 38 38 
-0.707709 0.152247 -6.941939 200 106 26 
-1.049692 0.150645 -7.342435 46 35 34 
-1.039307 0.150645 -7.342435 25 31 32 
-1.009509 0.147803 -7.203899 22 29 32 
-0.999320 0.147803 -7.203899 21 23 23 
-0.989132 0.147803 -7.203899 27 26 25 
-0.978943 0.147803 -7.203899 19 26 29 
-0.968754 0.147803 -7.203899 17 17 19 
-0.958565 0.147803 -7.203899 26 21 23 
-0.948377 0.147803 -7.203899 20 24 29 
-0.938188 0.147803 -7.203899 18 28 27 
-0.927999 0.147803 -7.203899 23 28 30 
-0.935461 0.150645 -7.342435 24 27 36 
-0.925076 0.150645 -7.342435 24 25 29 
-0.914692 0.150645 -7.342435 17 26 29 
-0.904307 0.150645 -7.342435 18 24 28 
-0.893923 0.150645 -7.342435 19 17 23 
-0.883538 0.150645 -7.342435 32 24 25 
-0.890274 0.153599 -7.486404 45 29 27 
-0.897279 0.156671 -7.636133 51 31 26 
-0.886479 0.156671 -7.636133 55 34 25 
-0.893550 0.159869 -7.791972 51 32 24 
-0.864879 0.156671 -7.636133 50 26 23 
-0.871510 0.159869 -7.791972 49 27 23 
-0.860489 0.159869 -7.791972 52 28 22 
-0.849469 0.159869 -7.791972 53 30 25 
-0.838448 0.159869 -7.791972 62 32 27 
-0.844666 0.163199 -7.954305 60 35 31 
-0.714357 0.139885 -6.817976 59 34 44 
-0.717527 0.142428 -6.941939 79 75 79 
-0.707709 0.142428 -6.941939 200 134 168 
-1.049692 0.140261 -7.342435 48 35 33 
-1.039307 0.140261 -7.342435 24 32 33 
-1.009509 0.137614 -7.203899 24 26 34 
-0.999320 0.137614 -7.203899 23 21 24 
-0.989132 0.137614 -7.203899 24 28 27 
-0.978943 0.137614 -7.203899 25 28 33 
-0.968754 0.137614 -7.203899 25 19 15 
-0.958565 0.137614 -7.203899 18 22 21 
-0.948377 0.137614 -7.203899 25 26 33 
-0.938188 0.137614 -7.203899 27 23 21 
-0.927999 0.137614 -7.203899 17 22 25 
-0.935461 0.140261 -7.342435 22 25 34 
-0.925076 0.140261 -7.342435 24 26 28 
-0.914692 0.140261 -7.342435 36 26 29 
-0.904307 0.140261 -7.342435 43 25 30 
-0.893923 0.140261 -7.342435 48 27 29 
-0.883538 0.140261 -7.342435 55 34 29 
-0.890274 0.143011 -7.486404 54 30 29 
-0.897279 0.145871 -7.636133 54 32 26 
-0.886479 0.145871 -7.636133 59 34 26 
-0.875679 0.145871 -7.636133 57 32 24 
-0.864879 0.145871 -7.636133 57 31 23 
-0.854079 0.145871 -7.636133 43 29 23 
-0.860489 0.148848 -7.791972 44 26 21 
-0.849469 0.148848 -7.791972 43 26 23 
-0.838448 0.148848 -7.791972 50 28 25 
-0.844666 0.151949 -7.954305 62 31 29 
-0.714357 0.130242 -6.817976 68 41 43 
-0.717527 0.132610 -6.941939 123 84 70 
-0.707709 0.132610 -6.941939 213 157 148 
-1.049692 0.129876 -7.342435 50 36 37 
-1.039307 0.129876 -7.342435 23 29 30 
-1.009509 0.127426 -7.203899 24 26 18 
-0.999320 0.127426 -7.203899 23 22 29 
-0.989132 0.127426 -7.203899 24 24 29 
-0.978943 0.127426 -7.203899 25 29 31 
-0.968754 0.127426 -7.203899 26 22 17 
-0.958565 0.127426 -7.203899 17 16 21 
-0.948377 0.127426 -7.203899 25 27 30 
-0.938188 0.127426 -7.203899 29 27 33 
-0.927999 0.127426 -7.203899 20 22 32 
-0.917811 0.127426 -7.203899 23 25 31 
-0.925076 0.129876 -7.342435 24 25 18 
-0.914692 0.129876 -7.342435 31 23 23 
-0.904307 0.129876 -7.342435 41 30 38 
-0.893923 0.129876 -7.342435 46 37 32 
-0.883538 0.129876 -7.342435 54 34 31 
-0.890274 0.132423 -7.486404 54 33 28 
-0.897279 0.135071 -7.636133 55 33 28 
-0.886479 0.135071 -7.636133 61 31 28 
-0.875679 0.135071 -7.636133 58 32 30 
-0.864879 0.135071 -7.636133 57 33 29 
-0.854079 0.135071 -7.636133 50 29 27 
-0.860489 0.137828 -7.791972 50 26 20 
-0.849469 0.137828 -7.791972 49 27 18 
-0.838448 0.137828 -7.791972 54 27 18 
-0.737163 0.122792 -6.941939 62 31 20 
-0.727345 0.122792 -6.941939 66 40 24 
-0.717527 0.122792 -6.941939 111 36 25 
-0.707709 0.122792 -6.941939 114 63 28 
-1.049692 0.119492 -7.342435 50 34 35 
-1.039307 0.119492 -7.342435 12 26 31 
-1.009509 0.117237 -7.203899 20 21 21 
-0.999320 0.117237 -7.203899 21 26 31 
-0.989132 0.117237 -7.203899 27 28 31 
-0.978943 0.117237 -7.203899 25 29 32 
-0.968754 0.117237 -7.203899 24 20 17 
-0.958565 0.117237 -7.203899 12 16 22 
-0.948377 0.117237 -7.203899 24 27 36 
-0.938188 0.117237 -7.203899 30 31 29 
-0.927999 0.117237 -7.203899 32 25 27 
-0.917811 0.117237 -7.203899 28 23 23 
-0.925076 0.119492 -7.342435 26 20 17 
-0.914692 0.119492 -7.342435 17 18 18 
-0.904307 0.119492 -7.342435 34 19 21 
-0.893923 0.119492 -7.342435 44 27 27 
-0.883538 0.119492 -7.342435 53 34 28 
-0.890274 0.121835 -7.486404 56 34 28 
-0.897279 0.124271 -7.636133 58 33 29 
-0.886479 0.124271 -7.636133 64 33 29 
-0.875679 0.124271 -7.636133 60 31 28 
-0.864879 0.124271 -7.636133 57 34 28 
-0.854079 0.124271 -7.636133 57 33 27 
-0.860489 0.126807 -7.791972 55 30 24 
-0.849469 0.126807 -7.791972 54 30 26 
-0.805568 0.121835 -7.486404 55 31 27 
-0.737163 0.112974 -6.941939 61 33 26 
-0.727345 0.112974 -6.941939 65 35 63 
-0.717527 0.112974 -6.941939 95 98 61 
-0.707709 0.112974 -6.941939 53 54 44 
-1.049692 0.109107 -7.342435 49 33 34 
-1.039307 0.109107 -7.342435 21 27 31 
-1.009509 0.107048 -7.203899 27 26 23 
-0.999320 0.107048 -7.203899 28 27 34 
-0.989132 0.107048 -7.203899 25 28 33 
-0.978943 0.107048 -7.203899 23 28 33 
-0.968754 0.107048 -7.203899 22 22 16 
-0.958565 0.107048 -7.203899 30 19 21 
-0.948377 0.107048 -7.203899 30 31 41 
-0.938188 0.107048 -7.203899 31 30 27 
-0.927999 0.107048 -7.203899 24 23 24 
-0.917811 0.107048 -7.203899 22 19 17 
-0.925076 0.109107 -7.342435 21 16 16 
-0.914692 0.109107 -7.342435 22 15 16 
-0.904307 0.109107 -7.342435 20 15 14 
-0.893923 0.109107 -7.342435 18 15 25 
-0.883538 0.109107 -7.342435 40 26 26 
-0.890274 0.111246 -7.486404 48 32 27 
-0.897279 0.113471 -7.636133 54 33 29 
-0.886479 0.113471 -7.636133 65 35 29 
-0.875679 0.113471 -7.636133 64 37 28 
-0.864879 0.113471 -7.636133 64 34 28 
-0.854079 0.113471 -7.636133 64 34 28 
-0.843279 0.113471 -7.636133 65 35 26 
-0.816156 0.111246 -7.486404 64 35 28 
-0.746981 0.103156 -6.941939 67 36 29 
-0.737163 0.103156 -6.941939 87 37 26 
-0.727345 0.103156 -6.941939 89 103 83 
-0.717527 0.103156 -6.941939 255 187 91 
-0.707709 0.103156 -6.941939 152 161 96 
-1.049692 0.098722 -7.342435 48 31 35 
-1.039307 0.098722 -7.342435 23 30 33 
-1.009509 0.096860 -7.203899 28 28 29 
-0.999320 0.096860 -7.203899 29 28 30 
-0.989132 0.096860 -7.203899 26 28 30 
-0.978943 0.096860 -7.203899 24 29 31 
-0.968754 0.096860 -7.203899 23 24 29 
-0.958565 0.096860 -7.203899 31 25 27 
-0.948377 0.096860 -7.203899 31 29 20 
-0.938188 0.096860 -7.203899 31 24 21 
-0.927999 0.096860 -7.203899 23 23 21 
-0.917811 0.096860 -7.203899 22 19 20 
-0.925076 0.098722 -7.342435 21 19 18 
-0.914692 0.098722 -7.342435 22 16 16 
-0.904307 0.098722 -7.342435 20 15 12 
-0.877056 0.096860 -7.203899 18 14 13 
-0.883538 0.098722 -7.342435 33 15 13 
-0.873153 0.098722 -7.342435 39 24 15 
-0.879686 0.100658 -7.486404 44 30 30 
-0.869097 0.100658 -7.486404 64 37 31 
-0.875679 0.102671 -7.636133 64 39 31 
-0.864879 0.102671 -7.636133 65 37 32 
-0.854079 0.102671 -7.636133 67 37 33 
-0.843279 0.102671 -7.636133 69 39 33 
-0.770814 0.095066 -7.070493 71 41 36 
-0.746981 0.093338 -6.941939 71 40 36 
-0.737163 0.093338 -6.941939 121 49 20 
-0.727345 0.093338 -6.941939 157 128 164 
-0.717527 0.093338 -6.941939 255 241 188 
-0.707709 0.093338 -6.941939 215 245 255 
-1.049692 0.088338 -7.342435 48 35 39 
-1.039307 0.088338 -7.342435 22 31 36 
-1.009509 0.086671 -7.203899 25 25 27 
-0.999320 0.086671 -7.203899 25 29 29 
-0.989132 0.086671 -7.203899 35 28 28 
-0.978943 0.086671 -7.203899 33 29 26 
-0.968754 0.086671 -7.203899 33 27 25 
-0.958565 0.086671 -7.203899 28 26 25 
-0.948377 0.086671 -7.203899 29 24 23 
-0.938188 0.086671 -7.203899 30 24 22 
-0.927999 0.086671 -7.203899 21 21 21 
-0.917811 0.086671 -7.203899 21 17 20 
-0.925076 0.088338 -7.342435 19 18 16 
-0.914692 0.088338 -7.342435 21 17 15 
-0.887245 0.086671 -7.203899 20 18 14 
-0.877056 0.086671 -7.203899 19 16 15 
-0.866867 0.086671 -7.203899 18 15 15 
-0.856679 0.086671 -7.203899 24 14 15 
-0.862769 0.088338 -7.342435 28 23 19 
-0.869097 0.090070 -7.486404 67 30 21 
-0.875679 0.091871 -7.636133 67 37 30 
-0.864879 0.091871 -7.636133 69 38 31 
-0.854079 0.091871 -7.636133 70 41 32 
-0.843279 0.091871 -7.636133 74 42 37 
-0.770814 0.085066 -7.070493 77 44 37 
-0.746981 0.083519 -6.941939 73 45 41 
-0.737163 0.083519 -6.941939 142 64 52 
-0.727345 0.083519 -6.941939 205 164 188 
-0.717527 0.083519 -6.941939 255 247 215 
-0.707709 0.083519 -6.941939 255 255 253 
-1.049692 0.077953 -7.342435 55 37 42 
-1.039307 0.077953 -7.342435 22 33 39 
-1.009509 0.076482 -7.203899 29 26 26 
-0.999320 0.076482 -7.203899 31 26 29 
-0.989132 0.076482 -7.203899 28 25 27 
-0.978943 0.076482 -7.203899 27 23 20 
-0.968754 0.076482 -7.203899 27 22 23 
-0.958565 0.076482 -7.203899 25 22 24 
-0.948377 0.076482 -7.203899 26 23 25 
-0.938188 0.076482 -7.203899 26 24 22 
-0.927999 0.076482 -7.203899 23 23 22 
-0.917811 0.076482 -7.203899 23 20 19 
-0.925076 0.077953 -7.342435 24 18 15 
-0.914692 0.077953 -7.342435 22 17 14 
-0.887245 0.076482 -7.203899 20 15 15 
-0.877056 0.076482 -7.203899 17 16 16 
-0.866867 0.076482 -7.203899 21 15 16 
-0.856679 0.076482 -7.203899 19 16 15 
-0.846490 0.076482 -7.203899 16 12 16 
-0.836301 0.076482 -7.203899 20 18 17 
-0.841999 0.077953 -7.342435 30 22 28 
-0.831615 0.077953 -7.342435 38 34 29 
-0.821230 0.077953 -7.342435 71 40 30 
-0.826745 0.079482 -7.486404 75 45 35 
-0.770814 0.075066 -7.070493 81 48 36 
-0.746981 0.073701 -6.941939 96 53 40 
-0.737163 0.073701 -6.941939 178 79 55 
-0.727345 0.073701 -6.941939 255 188 187 
-0.717527 0.073701 -6.941939 255 255 215 
-0.707709 0.073701 -6.941939 255 255 249 
-1.049692 0.067569 -7.342435 56 44 67 
-1.039307 0.067569 -7.342435 24 40 59 
-1.009509 0.066294 -7.203899 30 27 21 
-0.999320 0.066294 -7.203899 32 22 18 
-0.989132 0.066294 -7.203899 27 19 17 
-0.978943 0.066294 -7.203899 26 17 15 
-0.968754 0.066294 -7.203899 25 18 17 
-0.958565 0.066294 -7.203899 25 18 18 
-0.948377 0.066294 -7.203899 25 18 19 
-0.938188 0.066294 -7.203899 25 19 18 
-0.927999 0.066294 -7.203899 23 19 17 
-0.917811 0.066294 -7.203899 23 19 16 
-0.907622 0.066294 -7.203899 24 18 19 
-0.914692 0.067569 -7.342435 22 18 19 
-0.887245 0.066294 -7.203899 21 16 18 
-0.877056 0.066294 -7.203899 18 17 13 
-0.866867 0.066294 -7.203899 22 14 13 
-0.856679 0.066294 -7.203899 20 15 14 
-0.846490 0.066294 -7.203899 18 14 14 
-0.836301 0.066294 -7.203899 22 14 13 
-0.826113 0.066294 -7.203899 27 15 12 
-0.815924 0.066294 -7.203899 31 18 12 
-0.821230 0.067569 -7.342435 48 25 13 
-0.826745 0.068893 -7.486404 49 30 24 
-0.770814 0.065066 -7.070493 52 36 31 
-0.746981 0.063883 -6.941939 66 45 36 
-0.737163 0.063883 -6.941939 154 89 54 
-0.727345 0.063883 -6.941939 255 207 188 
-0.717527 0.063883 -6.941939 255 255 214 
-0.707709 0.063883 -6.941939 255 255 235 
-1.010814 0.055066 -7.070493 41 38 48 
-1.039307 0.057184 -7.342435 43 35 44 
-1.009509 0.056105 -7.203899 35 22 19 
-0.999320 0.056105 -7.203899 30 21 17 
-0.989132 0.056105 -7.203899 27 18 17 
-0.978943 0.056105 -7.203899 24 16 15 
-0.968754 0.056105 -7.203899 22 16 17 
-0.958565 0.056105 -7.203899 23 16 17 
-0.948377 0.056105 -7.203899 22 17 19 
-0.938188 0.056105 -7.203899 21 18 18 
-0.927999 0.056105 -7.203899 23 17 17 
-0.917811 0.056105 -7.203899 23 16 17 
-0.907622 0.056105 -7.203899 22 16 18 
-0.914692 0.057184 -7.342435 23 17 18 
-0.887245 0.056105 -7.203899 23 17 15 
-0.877056 0.056105 -7.203899 22 16 16 
-0.866867 0.056105 -7.203899 22 17 16 
-0.856679 0.056105 -7.203899 21 16 15 
-0.846490 0.056105 -7.203899 19 15 17 
-0.836301 0.056105 -7.203899 22 15 17 
-0.826113 0.056105 -7.203899 22 15 14 
-0.815924 0.056105 -7.203899 21 16 15 
-0.821230 0.057184 -7.342435 25 15 15 
-0.795547 0.056105 -7.203899 26 17 19 
-0.756799 0.054065 -6.941939 28 20 22 
-0.746981 0.054065 -6.941939 44 28 28 
-0.737163 0.054065 -6.941939 135 88 94 
-0.727345 0.054065 -6.941939 255 231 197 
-0.717527 0.054065 -6.941939 255 255 221 
-0.707709 0.054065 -6.941939 255 255 226 
-0.992436 0.044247 -6.941939 54 28 24 
-1.000814 0.045066 -7.070493 32 27 24 
-1.009509 0.045916 -7.203899 33 21 16 
-0.999320 0.045916 -7.203899 32 19 16 
-0.989132 0.045916 -7.203899 26 18 16 
-0.960814 0.045066 -7.070493 24 18 15 
-0.950814 0.045066 -7.070493 21 16 16 
-0.940814 0.045066 -7.070493 22 15 16 
-0.948377 0.045916 -7.203899 22 15 20 
-0.938188 0.045916 -7.203899 23 18 17 
-0.927999 0.045916 -7.203899 22 17 17 
-0.917811 0.045916 -7.203899 22 17 17 
-0.907622 0.045916 -7.203899 22 17 18 
-0.914692 0.046799 -7.342435 25 18 18 
-0.887245 0.045916 -7.203899 23 16 15 
-0.877056 0.045916 -7.203899 21 16 17 
-0.866867 0.045916 -7.203899 24 17 17 
-0.856679 0.045916 -7.203899 25 17 16 
-0.846490 0.045916 -7.203899 26 16 18 
-0.836301 0.045916 -7.203899 23 16 18 
-0.796072 0.044247 -6.941939 24 17 14 
-0.786254 0.044247 -6.941939 24 18 18 
-0.776436 0.044247 -6.941939 34 23 20 
-0.766618 0.044247 -6.941939 34 25 28 
-0.756799 0.044247 -6.941939 30 29 28 
-0.746981 0.044247 -6.941939 91 42 35 
-0.737163 0.044247 -6.941939 160 155 116 
-0.727345 0.044247 -6.941939 255 242 195 
-0.717527 0.044247 -6.941939 255 255 219 
-0.707709 0.044247 -6.941939 255 255 227 
-0.992436 0.034428 -6.941939 58 74 39 
-1.000814 0.035066 -7.070493 30 19 22 
-1.009509 0.035728 -7.203899 32 20 19 
-0.999320 0.035728 -7.203899 32 19 17 
-0.970814 0.035066 -7.070493 25 17 17 
-0.960814 0.035066 -7.070493 24 18 17 
-0.950814 0.035066 -7.070493 21 16 16 
-0.940814 0.035066 -7.070493 22 14 16 
-0.930814 0.035066 -7.070493 23 15 11 
-0.920814 0.035066 -7.070493 23 17 17 
-0.927999 0.035728 -7.203899 22 18 18 
-0.917811 0.035728 -7.203899 22 18 17 
-0.907622 0.035728 -7.203899 22 18 17 
-0.914692 0.036415 -7.342435 25 18 17 
-0.887245 0.035728 -7.203899 24 17 19 
-0.877056 0.035728 -7.203899 22 16 17 
-0.866867 0.035728 -7.203899 24 17 17 
-0.856679 0.035728 -7.203899 24 18 17 
-0.815709 0.034428 -6.941939 25 18 18 
-0.805890 0.034428 -6.941939 27 18 18 
-0.796072 0.034428 -6.941939 43 20 16 
-0.786254 0.034428 -6.941939 67 33 31 
-0.776436 0.034428 -6.941939 106 75 38 
-0.766618 0.034428 -6.941939 104 78 80 
-0.756799 0.034428 -6.941939 103 79 54 
-0.746981 0.034428 -6.941939 160 89 53 
-0.737163 0.034428 -6.941939 199 179 186 
-0.727345 0.034428 -6.941939 255 248 202 
-0.717527 0.034428 -6.941939 255 255 211 
-0.707709 0.034428 -6.941939 255 255 232 
-0.992436 0.024610 -6.941939 69 65 39 
-1.000814 0.025066 -7.070493 28 22 21 
-1.009509 0.025539 -7.203899 30 22 18 
-0.999320 0.025539 -7.203899 29 18 17 
-0.970814 0.025066 -7.070493 24 16 16 
-0.960814 0.025066 -7.070493 24 16 15 
-0.950814 0.025066 -7.070493 24 16 15 
-0.940814 0.025066 -7.070493 22 14 15 
-0.930814 0.025066 -7.070493 23 15 14 
-0.920814 0.025066 -7.070493 25 16 17 
-0.927999 0.025539 -7.203899 24 19 18 
-0.917811 0.025539 -7.203899 24 17 18 
-0.907622 0.025539 -7.203899 23 18 18 
-0.914692 0.026030 -7.342435 25 18 18 
-0.887245 0.025539 -7.203899 25 17 18 
-0.877056 0.025539 -7.203899 24 18 18 
-0.850814 0.025066 -7.070493 22 19 19 
-0.825527 0.024610 -6.941939 22 19 19 
-0.815709 0.024610 -6.941939 23 17 24 
-0.805890 0.024610 -6.941939 19 31 28 
-0.796072 0.024610 -6.941939 51 43 79 
-0.786254 0.024610 -6.941939 105 103 92 
-0.776436 0.024610 -6.941939 166 127 97 
-0.766618 0.024610 -6.941939 161 137 111 
-0.756799 0.024610 -6.941939 151 139 117 
-0.746981 0.024610 -6.941939 209 149 120 
-0.737163 0.024610 -6.941939 225 216 181 
-0.727345 0.024610 -6.941939 255 248 196 
-0.717527 0.024610 -6.941939 255 255 204 
-0.707709 0.024610 -6.941939 255 255 219 
-0.992436 0.014792 -6.941939 41 39 39 
-1.000814 0.015066 -7.070493 33 21 19 
-1.009509 0.015350 -7.203899 32 21 18 
-0.980814 0.015066 -7.070493 30 18 16 
-0.970814 0.015066 -7.070493 22 16 16 
-0.960814 0.015066 -7.070493 24 16 14 
-0.950814 0.015066 -7.070493 26 18 15 
-0.940814 0.015066 -7.070493 24 16 15 
-0.930814 0.015066 -7.070493 22 14 15 
-0.920814 0.015066 -7.070493 19 14 17 
-0.927999 0.015350 -7.203899 24 17 18 
-0.917811 0.015350 -7.203899 24 18 19 
-0.907622 0.015350 -7.203899 25 18 18 
-0.897433 0.015350 -7.203899 22 18 18 
-0.854981 0.014792 -6.941939 23 18 18 
-0.845163 0.014792 -6.941939 24 19 19 
-0.835345 0.014792 -6.941939 30 21 20 
-0.825527 0.014792 -6.941939 41 24 24 
-0.815709 0.014792 -6.941939 49 48 34 
-0.805890 0.014792 -6.941939 183 74 39 
-0.796072 0.014792 -6.941939 184 121 94 
-0.786254 0.014792 -6.941939 186 139 103 
-0.776436 0.014792 -6.941939 198 145 108 
-0.766618 0.014792 -6.941939 215 161 122 
-0.756799 0.014792 -6.941939 255 187 129 
-0.746981 0.014792 -6.941939 255 204 133 
-0.737163 0.014792 -6.941939 255 224 176 
-0.727345 0.014792 -6.941939 255 250 197 
-0.717527 0.014792 -6.941939 255 255 207 
-0.707709 0.014792 -6.941939 255 255 209 
-0.992436 0.004974 -6.941939 34 27 23 
-1.000814 0.005066 -7.070493 34 22 19 
-1.009509 0.005162 -7.203899 32 21 17 
-0.980814 0.005066 -7.070493 31 19 17 
-0.970814 0.005066 -7.070493 22 16 17 
-0.960814 0.005066 -7.070493 23 16 16 
-0.950814 0.005066 -7.070493 26 16 17 
-0.940814 0.005066 -7.070493 23 16 17 
-0.930814 0.005066 -7.070493 22 15 14 
-0.920814 0.005066 -7.070493 19 15 14 
-0.927999 0.005162 -7.203899 24 18 14 
-0.917811 0.005162 -7.203899 24 19 18 
-0.907622 0.005162 -7.203899 24 18 20 
-0.880814 0.005066 -7.070493 23 20 21 
-0.854981 0.004974 -6.941939 30 19 17 
-0.845163 0.004974 -6.941939 45 29 29 
-0.835345 0.004974 -6.941939 91 64 34 
-0.825527 0.004974 -6.941939 106 86 86 
-0.815709 0.004974 -6.941939 125 122 112 
-0.805890 0.004974 -6.941939 187 137 124 
-0.796072 0.004974 -6.941939 189 154 117 
-0.786254 0.004974 -6.941939 187 151 115 
-0.776436 0.004974 -6.941939 204 153 114 
-0.766618 0.004974 -6.941939 211 170 154 
-0.756799 0.004974 -6.941939 226 191 159 
-0.746981 0.004974 -6.941939 231 198 162 
-0.737163 0.004974 -6.941939 238 213 164 
-0.727345 0.004974 -6.941939 255 242 209 
-0.717527 0.004974 -6.941939 255 247 226 
-0.707709 0.004974 -6.941939 255 254 187 
-0.992436 -0.004844 -6.941939 32 23 23 
-0.982618 -0.004844 -6.941939 32 22 19 
-0.990814 -0.004934 -7.070493 31 19 17 
-0.980814 -0.004934 -7.070493 30 19 17 
-0.970814 -0.004934 -7.070493 23 17 17 
-0.960814 -0.004934 -7.070493 23 16 15 
-0.950814 -0.004934 -7.070493 23 17 16 
-0.940814 -0.004934 -7.070493 19 16 16 
-0.930814 -0.004934 -7.070493 20 15 14 
-0.920814 -0.004934 -7.070493 19 14 14 
-0.927999 -0.005027 -7.203899 25 15 14 
-0.917811 -0.005027 -7.203899 24 18 22 
-0.907622 -0.005027 -7.203899 22 18 19 
-0.880814 -0.004934 -7.070493 21 20 18 
-0.854981 -0.004844 -6.941939 42 27 37 
-0.845163 -0.004844 -6.941939 75 88 73 
-0.835345 -0.004844 -6.941939 192 124 90 
-0.825527 -0.004844 -6.941939 198 150 111 
-0.815709 -0.004844 -6.941939 219 160 123 
-0.805890 -0.004844 -6.941939 206 162 130 
-0.796072 -0.004844 -6.941939 202 162 130 
-0.786254 -0.004844 -6.941939 192 165 137 
-0.776436 -0.004844 -6.941939 212 163 140 
-0.766618 -0.004844 -6.941939 213 173 124 
-0.756799 -0.004844 -6.941939 217 172 130 
-0.746981 -0.004844 -6.941939 219 164 131 
-0.737163 -0.004844 -6.941939 229 172 132 
-0.727345 -0.004844 -6.941939 255 193 147 
-0.717527 -0.004844 -6.941939 255 234 152 
-0.707709 -0.004844 -6.941939 255 243 200 
-0.992436 -0.014662 -6.941939 34 22 21 
-1.000814 -0.014934 -7.070493 31 20 19 
-0.990814 -0.014934 -7.070493 30 18 17 
-0.980814 -0.014934 -7.070493 28 18 17 
-0.970814 -0.014934 -7.070493 22 17 17 
-0.960814 -0.014934 -7.070493 23 16 15 
-0.950814 -0.014934 -7.070493 24 17 16 
-0.940814 -0.014934 -7.070493 24 16 16 
-0.930814 -0.014934 -7.070493 23 14 15 
-0.920814 -0.014934 -7.070493 20 13 14 
-0.910814 -0.014934 -7.070493 25 14 14 
-0.917811 -0.015216 -7.203899 24 19 24 
-0.907622 -0.015216 -7.203899 20 18 19 
-0.880814 -0.014934 -7.070493 49 20 17 
-0.854981 -0.014662 -6.941939 69 58 43 
-0.845163 -0.014662 -6.941939 112 98 82 
-0.835345 -0.014662 -6.941939 171 123 103 
-0.825527 -0.014662 -6.941939 179 147 116 
-0.815709 -0.014662 -6.941939 195 163 126 
-0.805890 -0.014662 -6.941939 217 171 131 
-0.796072 -0.014662 -6.941939 217 182 138 
-0.786254 -0.014662 -6.941939 216 175 139 
-0.776436 -0.014662 -6.941939 197 165 139 
-0.766618 -0.014662 -6.941939 181 154 114 
-0.756799 -0.014662 -6.941939 131 146 121 
-0.746981 -0.014662 -6.941939 114 134 122 
-0.737163 -0.014662 -6.941939 115 130 120 
-0.727345 -0.014662 -6.941939 105 137 131 
-0.717527 -0.014662 -6.941939 243 169 135 
-0.707709 -0.014662 -6.941939 249 221 187 
