ply
        format ascii 1.0
        element vertex 35205
        property float x
        property float y
        property float z
        property uchar red
        property uchar green
        property uchar blue
        end_header
-0.115019 -0.070561 -0.385274 255 200 157 
-0.114590 -0.070633 -0.385663 243 204 160 
-0.114044 -0.070633 -0.385663 240 191 153 
-0.113499 -0.070633 -0.385663 233 186 150 
-0.113182 -0.070776 -0.386444 216 182 156 
-0.112864 -0.070919 -0.387228 217 136 60 
-0.112316 -0.070919 -0.387228 17 50 48 
-0.111655 -0.070847 -0.386835 26 20 15 
-0.111447 -0.071063 -0.388015 18 18 18 
-0.110898 -0.071063 -0.388015 17 16 17 
-0.110126 -0.070919 -0.387228 17 16 15 
-0.109467 -0.070847 -0.386835 17 15 15 
-0.108810 -0.070776 -0.386444 16 14 14 
-0.108044 -0.070633 -0.385663 15 14 15 
-0.107282 -0.070490 -0.384886 19 17 15 
-0.106416 -0.070278 -0.383725 20 19 17 
-0.105873 -0.070278 -0.383725 18 17 15 
-0.105970 -0.070704 -0.386053 25 16 10 
-0.105637 -0.070847 -0.386835 25 25 33 
-0.104984 -0.070776 -0.386444 91 57 39 
-0.104437 -0.070776 -0.386444 75 69 96 
-0.103681 -0.070633 -0.385663 33 44 49 
-0.102824 -0.070419 -0.384498 28 23 16 
-0.102074 -0.070278 -0.383725 26 18 18 
-0.102981 -0.071281 -0.389201 37 24 27 
-0.102535 -0.071354 -0.389599 130 100 59 
-0.102088 -0.071426 -0.389997 240 171 128 
-0.101433 -0.071354 -0.389599 242 187 150 
-0.100882 -0.071354 -0.389599 241 190 151 
-0.100331 -0.071354 -0.389599 230 194 150 
-0.099780 -0.071354 -0.389599 239 190 149 
-0.099229 -0.071354 -0.389599 243 192 147 
-0.098879 -0.071499 -0.390395 241 190 144 
-0.098428 -0.071573 -0.390795 208 163 126 
-0.097875 -0.071573 -0.390795 145 142 127 
-0.097422 -0.071646 -0.391195 246 180 125 
-0.096869 -0.071646 -0.391195 251 193 153 
-0.096613 -0.071867 -0.392401 238 198 151 
-0.095959 -0.071793 -0.391999 230 194 149 
-0.095404 -0.071793 -0.391999 225 179 144 
-0.094753 -0.071719 -0.391597 240 186 145 
-0.094102 -0.071646 -0.391195 236 192 157 
-0.093549 -0.071646 -0.391195 231 189 152 
-0.092996 -0.071646 -0.391195 238 189 150 
-0.092348 -0.071573 -0.390795 226 188 153 
-0.091795 -0.071573 -0.390795 127 164 130 
-0.091149 -0.071499 -0.390395 206 153 91 
-0.090597 -0.071499 -0.390395 224 179 153 
-0.089861 -0.071354 -0.389599 219 182 154 
-0.089219 -0.071281 -0.389201 210 174 138 
-0.088578 -0.071208 -0.388805 199 170 137 
-0.088028 -0.071208 -0.388805 212 175 136 
-0.087479 -0.071208 -0.388805 206 189 149 
-0.087017 -0.071281 -0.389201 193 183 148 
-0.086203 -0.071063 -0.388015 180 166 148 
-0.086180 -0.071499 -0.390395 173 165 145 
-0.085628 -0.071499 -0.390395 171 155 121 
-0.084989 -0.071426 -0.389997 95 101 63 
-0.084351 -0.071354 -0.389599 42 34 25 
-0.083629 -0.071208 -0.388805 16 17 18 
-0.082159 -0.070419 -0.384498 16 13 14 
-0.081698 -0.070490 -0.384886 15 13 13 
-0.081153 -0.070490 -0.384886 14 13 13 
-0.080690 -0.070561 -0.385274 14 12 14 
-0.080145 -0.070561 -0.385274 14 11 13 
-0.079681 -0.070633 -0.385663 14 11 12 
-0.079215 -0.070704 -0.386053 14 13 13 
-0.078669 -0.070704 -0.386053 14 12 13 
-0.078123 -0.070704 -0.386053 14 12 13 
-0.077577 -0.070704 -0.386053 14 13 12 
-0.077031 -0.070704 -0.386053 15 13 12 
-0.076485 -0.070704 -0.386053 14 14 14 
-0.076016 -0.070776 -0.386444 13 13 16 
-0.075546 -0.070847 -0.386835 15 19 16 
-0.075075 -0.070919 -0.387228 17 28 42 
-0.074755 -0.071136 -0.388410 22 41 42 
-0.074281 -0.071208 -0.388805 20 35 43 
-0.073731 -0.071208 -0.388805 21 37 55 
-0.073181 -0.071208 -0.388805 27 47 57 
-0.072705 -0.071281 -0.389201 29 45 61 
-0.072155 -0.071281 -0.389201 32 43 47 
-0.071604 -0.071281 -0.389201 28 37 48 
-0.071054 -0.071281 -0.389201 67 53 54 
-0.070575 -0.071354 -0.389599 113 77 86 
-0.070096 -0.071426 -0.389997 144 138 95 
-0.080382 -0.082558 -0.450775 175 175 149 
-0.079839 -0.082655 -0.451308 229 185 152 
-0.079389 -0.082851 -0.452378 221 185 157 
-0.080758 -0.084965 -0.463921 218 179 143 
-0.080102 -0.084965 -0.463921 212 175 148 
-0.078304 -0.083744 -0.457253 200 176 151 
-0.077937 -0.084046 -0.458902 194 168 139 
-0.078515 -0.085380 -0.466186 158 128 130 
-0.078046 -0.085589 -0.467328 194 129 111 
-0.077575 -0.085799 -0.468474 206 170 143 
-0.077102 -0.086010 -0.469627 247 180 144 
-0.076344 -0.085905 -0.469050 240 186 149 
-0.075588 -0.085799 -0.468474 237 185 147 
-0.074925 -0.085799 -0.468474 250 184 147 
-0.073990 -0.085485 -0.466756 249 186 147 
-0.073151 -0.085276 -0.465618 249 190 150 
-0.072316 -0.085069 -0.464485 236 189 150 
-0.071399 -0.084759 -0.462796 233 185 147 
-0.070488 -0.084452 -0.461119 226 166 137 
-0.069584 -0.084147 -0.459454 226 158 134 
-0.068851 -0.084046 -0.458902 230 176 141 
-0.068366 -0.084249 -0.460008 243 184 146 
-0.067879 -0.084452 -0.461119 221 183 151 
-0.067227 -0.084452 -0.461119 219 177 143 
-0.066575 -0.084452 -0.461119 219 179 144 
-0.065923 -0.084452 -0.461119 209 179 144 
-0.065192 -0.084350 -0.460563 208 177 144 
-0.064463 -0.084249 -0.460008 212 181 145 
-0.063582 -0.083945 -0.458351 222 181 148 
-0.062261 -0.083048 -0.453452 224 165 131 
-0.061184 -0.082460 -0.450244 180 142 132 
-0.060834 -0.082851 -0.452378 226 175 130 
-0.059840 -0.082363 -0.449713 242 183 152 
-0.059414 -0.082655 -0.451308 246 190 155 
-0.058706 -0.082558 -0.450775 244 191 162 
-0.058206 -0.082753 -0.451842 244 185 147 
-0.057841 -0.083147 -0.453991 226 188 145 
-0.057199 -0.083147 -0.453991 223 179 141 
-0.056624 -0.083246 -0.454532 221 172 137 
-0.054363 -0.080840 -0.441395 214 173 137 
-0.053553 -0.080560 -0.439869 182 166 148 
-0.052870 -0.080468 -0.439363 140 149 79 
-0.052249 -0.080468 -0.439363 174 123 63 
-0.051746 -0.080653 -0.440377 141 144 149 
-0.051301 -0.080933 -0.441906 101 77 46 
-0.050676 -0.080933 -0.441906 14 15 15 
-0.050051 -0.080933 -0.441906 15 11 11 
-0.049312 -0.080746 -0.440885 15 13 13 
-0.048632 -0.080653 -0.440377 13 11 13 
-0.048009 -0.080653 -0.440377 12 10 10 
-0.047386 -0.080653 -0.440377 9 8 10 
-0.046764 -0.080653 -0.440377 9 7 10 
-0.046141 -0.080653 -0.440377 10 10 12 
-0.045518 -0.080653 -0.440377 13 10 12 
-0.044895 -0.080653 -0.440377 12 8 12 
-0.044272 -0.080653 -0.440377 12 10 12 
-0.043700 -0.080746 -0.440885 12 12 12 
-0.043176 -0.080933 -0.441906 14 13 11 
-0.042600 -0.081027 -0.442418 36 22 24 
-0.041974 -0.081027 -0.442418 151 99 77 
-0.041253 -0.080840 -0.441395 202 160 131 
-0.044262 -0.088069 -0.480865 213 162 133 
-0.044999 -0.090932 -0.496498 216 167 131 
-0.045178 -0.092741 -0.506375 220 162 133 
-0.045181 -0.094240 -0.514564 214 139 102 
-0.045748 -0.096985 -0.529552 139 149 117 
-0.051827 -0.111704 -0.609915 211 162 132 
-0.058113 -0.127371 -0.695458 229 174 139 
-0.069698 -0.155392 -0.848459 223 174 140 
-0.068650 -0.155738 -0.850349 231 172 145 
-0.068671 -0.158563 -0.865775 232 164 138 
-0.080389 -0.188990 -1.031910 224 164 138 
-0.079575 -0.190535 -1.040345 226 166 139 
-0.069573 -0.169724 -0.926715 226 170 134 
-0.068097 -0.169313 -0.924471 232 171 133 
-0.067278 -0.170552 -0.931236 185 171 132 
-0.065641 -0.169724 -0.926715 168 121 124 
-0.072022 -0.190018 -1.037518 210 117 128 
-0.072933 -0.196423 -1.072491 244 180 134 
-0.117199 -0.071106 -0.385274 206 173 133 
-0.116654 -0.071106 -0.385274 183 158 115 
-0.116109 -0.071106 -0.385274 101 114 120 
-0.115564 -0.071106 -0.385274 211 148 120 
-0.115019 -0.071106 -0.385274 255 200 158 
-0.114590 -0.071178 -0.385663 247 198 162 
-0.114044 -0.071178 -0.385663 241 194 156 
-0.113499 -0.071178 -0.385663 234 189 152 
-0.113182 -0.071322 -0.386444 151 190 160 
-0.112750 -0.071395 -0.386835 125 110 48 
-0.112203 -0.071395 -0.386835 18 23 39 
-0.111655 -0.071395 -0.386835 24 21 15 
-0.111447 -0.071612 -0.388015 21 18 17 
-0.110898 -0.071612 -0.388015 18 18 17 
-0.110126 -0.071467 -0.387228 17 16 15 
-0.109467 -0.071395 -0.386835 16 15 15 
-0.108810 -0.071322 -0.386444 16 15 13 
-0.108044 -0.071178 -0.385663 16 15 15 
-0.107282 -0.071035 -0.384886 26 15 16 
-0.106416 -0.070821 -0.383725 25 16 14 
-0.106087 -0.070963 -0.384498 14 16 15 
-0.105970 -0.071250 -0.386053 27 19 13 
-0.105637 -0.071395 -0.386835 28 36 57 
-0.104984 -0.071322 -0.386444 104 72 60 
-0.104437 -0.071322 -0.386444 78 70 25 
-0.103681 -0.071178 -0.385663 25 27 21 
-0.102927 -0.071035 -0.384886 26 18 17 
-0.102074 -0.070821 -0.383725 26 16 23 
-0.102981 -0.071831 -0.389201 51 39 51 
-0.102535 -0.071905 -0.389599 144 120 141 
-0.102088 -0.071978 -0.389997 234 181 146 
-0.101329 -0.071831 -0.389201 234 186 150 
-0.100882 -0.071905 -0.389599 232 188 156 
-0.100331 -0.071905 -0.389599 232 191 157 
-0.099780 -0.071905 -0.389599 226 189 159 
-0.099229 -0.071905 -0.389599 222 188 152 
-0.098879 -0.072052 -0.390395 240 184 151 
-0.098428 -0.072125 -0.390795 195 168 144 
-0.097875 -0.072125 -0.390795 122 118 132 
-0.097422 -0.072199 -0.391195 240 150 125 
-0.096869 -0.072199 -0.391195 243 199 161 
-0.096613 -0.072422 -0.392401 233 196 155 
-0.095959 -0.072347 -0.391999 240 182 152 
-0.095307 -0.072273 -0.391597 243 186 145 
-0.094656 -0.072199 -0.391195 235 191 146 
-0.094102 -0.072199 -0.391195 236 187 157 
-0.093549 -0.072199 -0.391195 235 189 150 
-0.092901 -0.072125 -0.390795 242 191 148 
-0.092348 -0.072125 -0.390795 234 187 153 
-0.091795 -0.072125 -0.390795 192 167 136 
-0.091149 -0.072052 -0.390395 169 143 109 
-0.090505 -0.071978 -0.389997 162 152 153 
-0.089953 -0.071978 -0.389997 159 165 152 
-0.089128 -0.071758 -0.388805 159 156 145 
-0.088488 -0.071685 -0.388410 155 161 153 
-0.087939 -0.071685 -0.388410 195 174 157 
-0.087390 -0.071685 -0.388410 190 193 147 
-0.086840 -0.071685 -0.388410 174 170 148 
-0.086203 -0.071612 -0.388015 168 162 148 
-0.086092 -0.071978 -0.389997 169 165 144 
-0.085540 -0.071978 -0.389997 182 161 137 
-0.084902 -0.071905 -0.389599 104 124 130 
-0.084265 -0.071831 -0.389201 58 62 37 
-0.083629 -0.071758 -0.388805 16 22 23 
-0.082826 -0.071540 -0.387621 17 14 14 
-0.081698 -0.071035 -0.384886 14 13 15 
-0.081153 -0.071035 -0.384886 14 13 14 
-0.080690 -0.071106 -0.385274 14 12 14 
-0.080226 -0.071178 -0.385663 14 11 14 
-0.079681 -0.071178 -0.385663 15 11 13 
-0.079215 -0.071250 -0.386053 15 12 13 
-0.078669 -0.071250 -0.386053 17 12 13 
-0.078123 -0.071250 -0.386053 16 13 13 
-0.077577 -0.071250 -0.386053 15 13 12 
-0.077031 -0.071250 -0.386053 14 13 12 
-0.076485 -0.071250 -0.386053 18 12 14 
-0.076016 -0.071322 -0.386444 22 18 17 
-0.075546 -0.071395 -0.386835 39 28 18 
-0.075151 -0.071540 -0.387621 48 39 44 
-0.074755 -0.071685 -0.388410 78 58 44 
-0.074357 -0.071831 -0.389201 66 55 46 
-0.073806 -0.071831 -0.389201 67 59 56 
-0.073256 -0.071831 -0.389201 91 70 59 
-0.072705 -0.071831 -0.389201 86 77 68 
-0.072155 -0.071831 -0.389201 85 66 50 
-0.071532 -0.071758 -0.388805 37 50 51 
-0.071054 -0.071831 -0.389201 138 58 47 
-0.070575 -0.071905 -0.389599 235 127 116 
-0.070096 -0.071978 -0.389997 196 175 133 
-0.083641 -0.086568 -0.469050 204 173 151 
-0.082774 -0.086356 -0.467900 219 180 157 
-0.081513 -0.085726 -0.464485 208 182 160 
-0.080856 -0.085726 -0.464485 208 179 155 
-0.080102 -0.085621 -0.463921 206 180 154 
-0.078492 -0.084594 -0.458351 195 179 153 
-0.077937 -0.084695 -0.458902 192 177 149 
-0.078611 -0.086145 -0.466756 161 170 138 
-0.078046 -0.086250 -0.467328 188 127 119 
-0.077575 -0.086462 -0.468474 190 144 128 
-0.077102 -0.086675 -0.469627 245 176 133 
-0.076344 -0.086568 -0.469050 239 181 148 
-0.075588 -0.086462 -0.468474 239 181 147 
-0.074925 -0.086462 -0.468474 246 182 148 
-0.074081 -0.086250 -0.467328 244 183 150 
-0.073241 -0.086040 -0.466186 242 188 148 
-0.072581 -0.086040 -0.466186 236 188 147 
-0.071747 -0.085830 -0.465051 235 188 153 
-0.070573 -0.085207 -0.461677 237 185 147 
-0.069667 -0.084899 -0.460008 195 155 145 
-0.068934 -0.084797 -0.459454 203 147 129 
-0.068366 -0.084899 -0.460008 237 183 145 
-0.067879 -0.085104 -0.461119 232 192 154 
-0.067227 -0.085104 -0.461119 233 186 145 
-0.066575 -0.085104 -0.461119 239 185 146 
-0.065923 -0.085104 -0.461119 234 181 145 
-0.065192 -0.085002 -0.460563 235 184 145 
-0.064463 -0.084899 -0.460008 243 190 146 
-0.063582 -0.084594 -0.458351 231 187 148 
-0.062335 -0.083789 -0.453991 227 178 135 
-0.061256 -0.083195 -0.450775 206 142 134 
-0.061051 -0.083789 -0.453991 198 130 129 
-0.060266 -0.083590 -0.452914 193 164 143 
-0.059554 -0.083491 -0.452378 213 174 145 
-0.058845 -0.083392 -0.451842 205 172 156 
-0.058275 -0.083491 -0.452378 202 173 149 
-0.057841 -0.083789 -0.453991 189 173 149 
-0.057199 -0.083789 -0.453991 189 171 146 
-0.056624 -0.083889 -0.454532 189 163 144 
-0.056048 -0.083989 -0.455073 174 165 144 
-0.055404 -0.083989 -0.455073 173 155 142 
-0.054695 -0.083889 -0.454532 177 159 131 
-0.052249 -0.081089 -0.439363 103 157 131 
-0.051746 -0.081276 -0.440377 102 151 105 
-0.051301 -0.081558 -0.441906 100 72 38 
-0.050676 -0.081558 -0.441906 14 16 17 
-0.050051 -0.081558 -0.441906 16 13 11 
-0.049312 -0.081370 -0.440885 17 12 13 
-0.048632 -0.081276 -0.440377 13 11 14 
-0.048009 -0.081276 -0.440377 12 11 10 
-0.047386 -0.081276 -0.440377 9 9 10 
-0.046764 -0.081276 -0.440377 9 9 10 
-0.046141 -0.081276 -0.440377 10 11 12 
-0.045518 -0.081276 -0.440377 13 10 12 
-0.044999 -0.081464 -0.441395 15 10 11 
-0.044426 -0.081558 -0.441906 16 16 15 
-0.043903 -0.081748 -0.442931 18 17 17 
-0.043326 -0.081843 -0.443446 27 24 19 
-0.042650 -0.081748 -0.442931 47 36 27 
-0.041974 -0.081653 -0.442418 174 119 85 
-0.041253 -0.081464 -0.441395 209 172 146 
-0.044374 -0.088973 -0.482079 218 175 138 
-0.044999 -0.091634 -0.496498 218 172 142 
-0.045178 -0.093457 -0.506375 212 175 148 
-0.045303 -0.095225 -0.515955 209 163 131 
-0.045748 -0.097734 -0.529552 187 139 120 
-0.052077 -0.113108 -0.612852 177 148 101 
-0.056467 -0.124719 -0.675764 173 155 137 
-0.070481 -0.158352 -0.857992 193 156 137 
-0.068957 -0.157643 -0.854154 196 161 141 
-0.068827 -0.160151 -0.867742 196 160 133 
-0.081046 -0.192007 -1.040345 185 157 132 
-0.086659 -0.209099 -1.132957 196 157 130 
-0.080744 -0.198497 -1.075512 199 161 132 
-0.079671 -0.199622 -1.081605 178 162 132 
-0.079493 -0.203073 -1.100307 198 160 132 
-0.077937 -0.203073 -1.100307 205 167 121 
-0.075295 -0.200189 -1.084678 173 121 125 
-0.072933 -0.197939 -1.072491 192 122 130 
-0.117199 -0.071651 -0.385274 152 166 145 
-0.116654 -0.071651 -0.385274 144 154 138 
-0.116109 -0.071651 -0.385274 101 134 120 
-0.115564 -0.071651 -0.385274 216 141 88 
-0.115019 -0.071651 -0.385274 255 185 155 
-0.114590 -0.071724 -0.385663 249 200 160 
-0.114044 -0.071724 -0.385663 241 196 159 
-0.113499 -0.071724 -0.385663 236 196 146 
-0.113068 -0.071796 -0.386053 135 151 147 
-0.112636 -0.071869 -0.386444 103 58 26 
-0.112089 -0.071869 -0.386444 19 25 22 
-0.111769 -0.072015 -0.387228 23 19 15 
-0.111447 -0.072161 -0.388015 20 17 16 
-0.110898 -0.072161 -0.388015 17 17 16 
-0.110238 -0.072088 -0.387621 16 14 16 
-0.109467 -0.071942 -0.386835 15 14 15 
-0.108810 -0.071869 -0.386444 19 15 11 
-0.108044 -0.071724 -0.385663 23 16 16 
-0.107390 -0.071651 -0.385274 19 15 17 
-0.106523 -0.071435 -0.384111 19 13 12 
-0.106516 -0.071796 -0.386053 18 15 15 
-0.106184 -0.071942 -0.386835 49 20 14 
-0.105637 -0.071942 -0.386835 65 59 59 
-0.104984 -0.071869 -0.386444 45 85 60 
-0.104437 -0.071869 -0.386444 38 35 22 
-0.103891 -0.071869 -0.386444 20 17 20 
-0.102927 -0.071579 -0.384886 19 17 16 
-0.103320 -0.072234 -0.388410 23 18 25 
-0.102981 -0.072382 -0.389201 98 60 51 
-0.102535 -0.072456 -0.389599 163 147 130 
-0.102088 -0.072530 -0.389997 229 170 134 
-0.101329 -0.072382 -0.389201 222 173 136 
-0.100882 -0.072456 -0.389599 224 175 129 
-0.100331 -0.072456 -0.389599 233 171 132 
-0.099780 -0.072456 -0.389599 219 169 136 
-0.099229 -0.072456 -0.389599 215 167 123 
-0.098879 -0.072604 -0.390395 240 159 123 
-0.098428 -0.072678 -0.390795 191 165 134 
-0.097875 -0.072678 -0.390795 130 141 96 
-0.097422 -0.072752 -0.391195 235 133 80 
-0.096869 -0.072752 -0.391195 238 184 159 
-0.096613 -0.072977 -0.392401 235 190 154 
-0.095959 -0.072902 -0.391999 237 186 157 
-0.095307 -0.072827 -0.391597 237 190 147 
-0.094656 -0.072752 -0.391195 238 187 148 
-0.094102 -0.072752 -0.391195 239 187 156 
-0.093549 -0.072752 -0.391195 242 189 150 
-0.092901 -0.072678 -0.390795 245 193 148 
-0.092348 -0.072678 -0.390795 243 196 157 
-0.091701 -0.072604 -0.390395 244 188 139 
-0.090778 -0.072308 -0.388805 203 168 115 
-0.090045 -0.072161 -0.388015 189 169 153 
-0.089496 -0.072161 -0.388015 238 186 152 
-0.088767 -0.072015 -0.387228 231 186 146 
-0.088488 -0.072234 -0.388410 225 184 155 
-0.087939 -0.072234 -0.388410 233 194 157 
-0.087390 -0.072234 -0.388410 232 186 147 
-0.086840 -0.072234 -0.388410 227 180 148 
-0.086203 -0.072161 -0.388015 231 182 148 
-0.086092 -0.072530 -0.389997 231 180 143 
-0.085366 -0.072382 -0.389201 235 180 138 
-0.084729 -0.072308 -0.388805 147 167 138 
-0.084094 -0.072234 -0.388410 96 96 52 
-0.083459 -0.072161 -0.388015 17 30 41 
-0.082826 -0.072088 -0.387621 19 17 13 
-0.081698 -0.071579 -0.384886 13 13 13 
-0.081153 -0.071579 -0.384886 14 12 12 
-0.080690 -0.071651 -0.385274 14 12 14 
-0.080226 -0.071724 -0.385663 14 12 13 
-0.079681 -0.071724 -0.385663 15 11 12 
-0.079215 -0.071796 -0.386053 15 12 12 
-0.078669 -0.071796 -0.386053 17 12 12 
-0.078123 -0.071796 -0.386053 16 13 13 
-0.077577 -0.071796 -0.386053 15 13 14 
-0.077031 -0.071796 -0.386053 14 13 15 
-0.076485 -0.071796 -0.386053 18 15 16 
-0.076016 -0.071869 -0.386444 22 23 24 
-0.075546 -0.071942 -0.386835 35 27 27 
-0.075075 -0.072015 -0.387228 42 39 43 
-0.074755 -0.072234 -0.388410 71 60 49 
-0.074281 -0.072308 -0.388805 59 58 56 
-0.073806 -0.072382 -0.389201 59 58 60 
-0.073256 -0.072382 -0.389201 76 69 67 
-0.072705 -0.072382 -0.389201 80 79 84 
-0.072155 -0.072382 -0.389201 85 75 55 
-0.071532 -0.072308 -0.388805 41 51 54 
-0.071054 -0.072382 -0.389201 93 63 42 
-0.070575 -0.072456 -0.389599 118 137 131 
-0.070096 -0.072530 -0.389997 255 182 146 
-0.083029 -0.086593 -0.465618 252 193 152 
-0.082371 -0.086593 -0.465618 255 196 158 
-0.081613 -0.086488 -0.465051 246 197 161 
-0.080856 -0.086383 -0.464485 247 196 156 
-0.080199 -0.086383 -0.464485 254 196 154 
-0.078681 -0.085447 -0.459454 243 194 152 
-0.078031 -0.085447 -0.459454 242 190 150 
-0.078611 -0.086805 -0.466756 255 194 142 
-0.078046 -0.086911 -0.467328 147 186 135 
-0.077575 -0.087124 -0.468474 111 138 109 
-0.077102 -0.087339 -0.469627 249 149 116 
-0.076344 -0.087232 -0.469050 239 178 137 
-0.075588 -0.087124 -0.468474 240 183 145 
-0.074925 -0.087124 -0.468474 241 185 146 
-0.074081 -0.086911 -0.467328 237 179 145 
-0.073241 -0.086699 -0.466186 233 183 144 
-0.072581 -0.086699 -0.466186 237 185 144 
-0.071834 -0.086593 -0.465618 237 186 147 
-0.070659 -0.085964 -0.462236 244 181 149 
-0.069920 -0.085860 -0.461677 182 182 150 
-0.069100 -0.085653 -0.460563 198 155 124 
-0.068449 -0.085653 -0.460563 235 166 141 
-0.067879 -0.085757 -0.461119 234 188 148 
-0.067227 -0.085757 -0.461119 236 185 164 
-0.066575 -0.085757 -0.461119 241 190 154 
-0.065923 -0.085757 -0.461119 234 188 145 
-0.065192 -0.085653 -0.460563 233 186 150 
-0.064463 -0.085550 -0.460008 238 180 148 
-0.063659 -0.085344 -0.458902 232 185 145 
-0.062335 -0.084431 -0.453991 230 180 146 
-0.061256 -0.083833 -0.450775 212 176 141 
-0.061124 -0.084531 -0.454532 199 142 133 
-0.060698 -0.084834 -0.456161 192 125 112 
-0.060269 -0.085140 -0.457802 215 160 121 
-0.059621 -0.085140 -0.457802 230 182 147 
-0.058762 -0.084834 -0.456161 244 187 152 
-0.057841 -0.084431 -0.453991 236 186 152 
-0.057199 -0.084431 -0.453991 232 184 149 
-0.056624 -0.084531 -0.454532 228 185 150 
-0.056048 -0.084632 -0.455073 233 191 149 
-0.055404 -0.084632 -0.455073 236 188 142 
-0.054957 -0.084936 -0.456706 242 188 153 
-0.053229 -0.083243 -0.447604 241 187 150 
-0.051806 -0.081994 -0.440885 176 165 95 
-0.051301 -0.082183 -0.441906 71 77 38 
-0.050676 -0.082183 -0.441906 15 16 17 
-0.050051 -0.082183 -0.441906 15 13 12 
-0.049312 -0.081994 -0.440885 13 12 13 
-0.048632 -0.081899 -0.440377 12 11 14 
-0.048009 -0.081899 -0.440377 11 8 10 
-0.047386 -0.081899 -0.440377 10 8 11 
-0.046764 -0.081899 -0.440377 11 10 11 
-0.046194 -0.081994 -0.440885 10 9 16 
-0.045570 -0.081994 -0.440885 6 15 22 
-0.044999 -0.082088 -0.441395 29 21 27 
-0.044426 -0.082183 -0.441906 33 38 44 
-0.043903 -0.082374 -0.442931 39 48 48 
-0.043326 -0.082470 -0.443446 58 55 51 
-0.042650 -0.082374 -0.442931 78 68 77 
-0.041974 -0.082279 -0.442418 205 139 111 
-0.041253 -0.082088 -0.441395 218 170 144 
-0.044262 -0.089429 -0.480865 222 172 143 
-0.044364 -0.091034 -0.489496 219 172 142 
-0.044296 -0.092336 -0.496498 212 173 140 
-0.043822 -0.092819 -0.499094 210 171 138 
-0.045122 -0.097136 -0.522307 208 156 133 
-0.052161 -0.114158 -0.613837 160 142 131 
-0.058007 -0.129103 -0.694194 149 143 86 
-0.062354 -0.141166 -0.759059 184 152 106 
-0.065723 -0.151400 -0.814087 188 162 137 
-0.064709 -0.151723 -0.815826 191 167 152 
-0.081046 -0.193478 -1.040345 183 172 151 
-0.086659 -0.210702 -1.132957 197 173 151 
-0.080744 -0.200018 -1.075512 201 177 144 
-0.080125 -0.202298 -1.087768 189 174 148 
-0.081369 -0.209459 -1.126273 205 180 156 
-0.080249 -0.210702 -1.132957 210 188 154 
-0.077271 -0.207016 -1.113139 187 181 149 
-0.072933 -0.199456 -1.072491 198 126 139 
-0.117199 -0.072196 -0.385274 225 184 149 
-0.116654 -0.072196 -0.385274 211 182 145 
-0.116109 -0.072196 -0.385274 160 149 118 
-0.115564 -0.072196 -0.385274 222 133 85 
-0.115019 -0.072196 -0.385274 239 180 153 
-0.114590 -0.072269 -0.385663 238 193 154 
-0.114044 -0.072269 -0.385663 236 190 154 
-0.113499 -0.072269 -0.385663 251 184 132 
-0.112953 -0.072269 -0.385663 76 132 124 
-0.112522 -0.072342 -0.386053 40 41 23 
-0.112089 -0.072415 -0.386444 21 20 22 
-0.112110 -0.072784 -0.388410 21 17 19 
-0.111447 -0.072710 -0.388015 19 17 16 
-0.110898 -0.072710 -0.388015 16 16 15 
-0.110238 -0.072636 -0.387621 16 13 13 
-0.109467 -0.072489 -0.386835 14 12 14 
-0.108810 -0.072415 -0.386444 20 15 16 
-0.108044 -0.072269 -0.385663 23 16 14 
-0.107390 -0.072196 -0.385274 18 16 14 
-0.106630 -0.072051 -0.384498 19 14 15 
-0.106516 -0.072342 -0.386053 19 16 21 
-0.106184 -0.072489 -0.386835 58 38 25 
-0.105637 -0.072489 -0.386835 78 70 64 
-0.105090 -0.072489 -0.386835 36 39 61 
-0.104543 -0.072489 -0.386835 31 17 12 
-0.103996 -0.072489 -0.386835 19 15 16 
-0.102927 -0.072123 -0.384886 22 14 14 
-0.103426 -0.072858 -0.388805 33 25 25 
-0.102876 -0.072858 -0.388805 183 80 52 
-0.102430 -0.072932 -0.389201 201 152 126 
-0.101776 -0.072858 -0.388805 221 169 128 
-0.101329 -0.072932 -0.389201 225 175 131 
-0.100882 -0.073007 -0.389599 225 171 123 
-0.100331 -0.073007 -0.389599 224 167 130 
-0.099780 -0.073007 -0.389599 228 165 135 
-0.099229 -0.073007 -0.389599 229 161 125 
-0.098879 -0.073156 -0.390395 219 156 127 
-0.098428 -0.073231 -0.390795 214 169 136 
-0.097875 -0.073231 -0.390795 205 149 111 
-0.097422 -0.073306 -0.391195 219 133 105 
-0.096869 -0.073306 -0.391195 224 179 157 
-0.096513 -0.073456 -0.391999 238 195 152 
-0.095860 -0.073381 -0.391597 234 189 149 
-0.095307 -0.073381 -0.391597 234 188 151 
-0.094656 -0.073306 -0.391195 242 189 153 
-0.094102 -0.073306 -0.391195 244 189 157 
-0.093549 -0.073306 -0.391195 248 190 151 
-0.092901 -0.073231 -0.390795 247 189 150 
-0.092348 -0.073231 -0.390795 246 193 143 
-0.091701 -0.073156 -0.390395 251 192 148 
-0.090778 -0.072858 -0.388805 195 149 157 
-0.090045 -0.072710 -0.388015 178 138 124 
-0.089496 -0.072710 -0.388015 235 178 130 
-0.088767 -0.072562 -0.387228 225 185 154 
-0.088488 -0.072784 -0.388410 223 188 154 
-0.087939 -0.072784 -0.388410 228 181 155 
-0.087390 -0.072784 -0.388410 228 179 149 
-0.086840 -0.072784 -0.388410 228 177 149 
-0.086116 -0.072636 -0.387621 227 177 148 
-0.085567 -0.072636 -0.387621 226 176 141 
-0.085019 -0.072636 -0.387621 222 177 142 
-0.084385 -0.072562 -0.387228 197 178 153 
-0.083838 -0.072562 -0.387228 202 148 61 
-0.083206 -0.072489 -0.386835 20 64 48 
-0.082659 -0.072489 -0.386835 26 17 12 
-0.081698 -0.072123 -0.384886 15 14 13 
-0.081153 -0.072123 -0.384886 16 11 12 
-0.080690 -0.072196 -0.385274 16 12 14 
-0.080226 -0.072269 -0.385663 15 13 13 
-0.079681 -0.072269 -0.385663 15 13 12 
-0.079215 -0.072342 -0.386053 15 13 12 
-0.078669 -0.072342 -0.386053 15 13 12 
-0.078123 -0.072342 -0.386053 14 13 13 
-0.077577 -0.072342 -0.386053 14 13 13 
-0.077031 -0.072342 -0.386053 15 13 14 
-0.076485 -0.072342 -0.386053 19 15 15 
-0.076016 -0.072415 -0.386444 23 17 21 
-0.075546 -0.072489 -0.386835 31 20 22 
-0.075075 -0.072562 -0.387228 40 35 42 
-0.074755 -0.072784 -0.388410 70 56 50 
-0.074281 -0.072858 -0.388805 57 59 57 
-0.073806 -0.072932 -0.389201 57 58 62 
-0.073256 -0.072932 -0.389201 73 66 64 
-0.072705 -0.072932 -0.389201 81 79 67 
-0.072081 -0.072858 -0.388805 86 78 69 
-0.071532 -0.072858 -0.388805 43 56 65 
-0.071054 -0.072932 -0.389201 85 50 40 
-0.070575 -0.073007 -0.389599 103 102 116 
-0.070096 -0.073081 -0.389997 248 177 133 
-0.083029 -0.087252 -0.465618 244 194 161 
-0.082371 -0.087252 -0.465618 255 199 161 
-0.081613 -0.087145 -0.465051 247 190 162 
-0.080955 -0.087145 -0.465051 246 189 157 
-0.080297 -0.087145 -0.465051 243 194 152 
-0.079834 -0.087358 -0.466186 244 192 149 
-0.079271 -0.087465 -0.466756 244 188 151 
-0.078611 -0.087465 -0.466756 235 192 151 
-0.078046 -0.087572 -0.467328 221 192 159 
-0.077575 -0.087787 -0.468474 222 173 80 
-0.077102 -0.088003 -0.469627 138 154 97 
-0.076344 -0.087895 -0.469050 211 161 133 
-0.075681 -0.087895 -0.469050 248 191 143 
-0.074925 -0.087787 -0.468474 249 195 144 
-0.074172 -0.087679 -0.467900 249 198 145 
-0.073151 -0.087252 -0.465618 249 197 144 
-0.072493 -0.087252 -0.465618 241 198 145 
-0.071834 -0.087252 -0.465618 242 189 148 
-0.070744 -0.086723 -0.462796 243 191 152 
-0.070005 -0.086618 -0.462236 244 194 153 
-0.069351 -0.086618 -0.462236 230 197 136 
-0.068531 -0.086409 -0.461119 188 178 144 
-0.067961 -0.086513 -0.461677 240 175 146 
-0.067227 -0.086409 -0.461119 244 195 154 
-0.066575 -0.086409 -0.461119 244 194 154 
-0.065923 -0.086409 -0.461119 232 193 156 
-0.065192 -0.086305 -0.460563 230 183 148 
-0.064463 -0.086201 -0.460008 228 177 149 
-0.063659 -0.085993 -0.458902 234 183 150 
-0.062335 -0.085073 -0.453991 236 180 146 
-0.061256 -0.084470 -0.450775 221 179 142 
-0.061124 -0.085174 -0.454532 196 173 135 
-0.060698 -0.085480 -0.456161 184 138 120 
-0.060341 -0.085890 -0.458351 220 120 124 
-0.059693 -0.085890 -0.458351 241 176 134 
-0.058762 -0.085480 -0.456161 255 192 156 
-0.057841 -0.085073 -0.453991 247 195 158 
-0.057199 -0.085073 -0.453991 241 191 159 
-0.056624 -0.085174 -0.454532 235 191 155 
-0.055981 -0.085174 -0.454532 241 195 154 
-0.055338 -0.085174 -0.454532 242 195 153 
-0.054695 -0.085174 -0.454532 243 192 150 
-0.053229 -0.083876 -0.447604 237 189 149 
-0.052046 -0.083001 -0.442931 181 177 159 
-0.051360 -0.082904 -0.442418 104 100 55 
-0.050676 -0.082808 -0.441906 14 16 22 
-0.050051 -0.082808 -0.441906 15 12 15 
-0.049312 -0.082617 -0.440885 12 12 14 
-0.048632 -0.082522 -0.440377 13 10 13 
-0.048009 -0.082522 -0.440377 12 8 11 
-0.047386 -0.082522 -0.440377 8 9 12 
-0.046764 -0.082522 -0.440377 25 12 13 
-0.046194 -0.082617 -0.440885 27 24 20 
-0.045570 -0.082617 -0.440885 31 31 35 
-0.044999 -0.082713 -0.441395 36 39 45 
-0.044426 -0.082808 -0.441906 37 45 74 
-0.043903 -0.083001 -0.442931 37 55 74 
-0.043326 -0.083097 -0.443446 59 54 75 
-0.042699 -0.083097 -0.443446 83 100 99 
-0.042121 -0.083194 -0.443961 230 157 120 
-0.041301 -0.082808 -0.441906 210 170 144 
-0.044095 -0.089770 -0.479055 209 172 145 
-0.044364 -0.091726 -0.489496 215 174 142 
-0.044182 -0.092797 -0.495210 216 178 139 
-0.043651 -0.093159 -0.497144 216 174 139 
-0.044694 -0.096946 -0.517353 210 168 135 
-0.052329 -0.115397 -0.615817 210 167 133 
-0.058007 -0.130084 -0.694194 207 149 98 
-0.060901 -0.138925 -0.741372 127 149 110 
-0.065167 -0.151261 -0.807202 208 160 119 
-0.064025 -0.151261 -0.807202 232 181 150 
-0.080172 -0.192848 -1.029128 233 185 149 
-0.086659 -0.212304 -1.132957 230 188 149 
-0.080517 -0.200973 -1.072491 229 182 147 
-0.078779 -0.200410 -1.069486 252 185 148 
-0.079493 -0.206186 -1.100307 232 183 151 
-0.083727 -0.221506 -1.182064 226 183 150 
-0.079116 -0.213571 -1.139721 220 184 148 
-0.072933 -0.200973 -1.072491 205 179 144 
-0.117317 -0.072815 -0.385663 231 187 152 
-0.116654 -0.072741 -0.385274 212 187 141 
-0.116109 -0.072741 -0.385274 165 164 115 
-0.115564 -0.072741 -0.385274 217 128 88 
-0.115019 -0.072741 -0.385274 227 167 131 
-0.114474 -0.072741 -0.385274 237 179 132 
-0.113929 -0.072741 -0.385274 230 178 136 
-0.113384 -0.072741 -0.385274 239 161 111 
-0.112953 -0.072815 -0.385663 63 89 103 
-0.112408 -0.072815 -0.385663 31 28 20 
-0.112203 -0.073036 -0.386835 20 21 22 
-0.112110 -0.073333 -0.388410 20 20 20 
-0.111447 -0.073259 -0.388015 18 16 16 
-0.110898 -0.073259 -0.388015 15 13 15 
-0.110238 -0.073184 -0.387621 16 14 13 
-0.109578 -0.073110 -0.387228 25 14 14 
-0.108810 -0.072962 -0.386444 21 17 16 
-0.108044 -0.072815 -0.385663 19 14 14 
-0.107390 -0.072741 -0.385274 19 13 13 
-0.107170 -0.072962 -0.386444 21 15 16 
-0.106623 -0.072962 -0.386444 19 24 32 
-0.106184 -0.073036 -0.386835 84 50 56 
-0.105637 -0.073036 -0.386835 108 55 37 
-0.105090 -0.073036 -0.386835 18 27 31 
-0.104649 -0.073110 -0.387228 23 16 17 
-0.103996 -0.073036 -0.386835 18 15 17 
-0.102927 -0.072668 -0.384886 22 16 14 
-0.103320 -0.073333 -0.388410 35 30 63 
-0.102876 -0.073408 -0.388805 204 120 88 
-0.102326 -0.073408 -0.388805 207 172 147 
-0.101776 -0.073408 -0.388805 221 179 144 
-0.101329 -0.073483 -0.389201 226 181 144 
-0.100882 -0.073558 -0.389599 226 178 147 
-0.100331 -0.073558 -0.389599 225 176 144 
-0.099780 -0.073558 -0.389599 224 173 142 
-0.099229 -0.073558 -0.389599 223 172 138 
-0.098879 -0.073708 -0.390395 221 168 138 
-0.098428 -0.073783 -0.390795 216 171 141 
-0.097875 -0.073783 -0.390795 216 172 130 
-0.097422 -0.073859 -0.391195 170 144 126 
-0.096869 -0.073859 -0.391195 179 161 159 
-0.096414 -0.073935 -0.391597 228 189 151 
-0.095860 -0.073935 -0.391597 215 184 146 
-0.095307 -0.073935 -0.391597 213 182 153 
-0.094656 -0.073859 -0.391195 218 183 154 
-0.094102 -0.073859 -0.391195 217 183 155 
-0.093549 -0.073859 -0.391195 217 182 151 
-0.092901 -0.073783 -0.390795 209 181 149 
-0.092348 -0.073783 -0.390795 205 177 145 
-0.091701 -0.073708 -0.390395 201 182 148 
-0.090778 -0.073408 -0.388805 120 159 153 
-0.090045 -0.073259 -0.388015 101 122 111 
-0.089405 -0.073184 -0.387621 229 150 120 
-0.088767 -0.073110 -0.387228 220 184 150 
-0.088488 -0.073333 -0.388410 224 188 153 
-0.087850 -0.073259 -0.388015 225 187 153 
-0.087301 -0.073259 -0.388015 227 185 146 
-0.086664 -0.073184 -0.387621 233 181 148 
-0.086028 -0.073110 -0.387228 227 183 149 
-0.085481 -0.073110 -0.387228 226 181 144 
-0.084761 -0.072962 -0.386444 220 178 144 
-0.084300 -0.073036 -0.386835 211 182 146 
-0.083753 -0.073036 -0.386835 217 158 123 
-0.083206 -0.073036 -0.386835 28 95 106 
-0.082575 -0.072962 -0.386444 33 32 11 
-0.082028 -0.072962 -0.386444 15 15 18 
-0.081153 -0.072668 -0.384886 16 12 16 
-0.080690 -0.072741 -0.385274 16 13 14 
-0.080226 -0.072815 -0.385663 16 14 13 
-0.079681 -0.072815 -0.385663 15 12 13 
-0.079215 -0.072888 -0.386053 14 12 13 
-0.078669 -0.072888 -0.386053 14 12 13 
-0.078123 -0.072888 -0.386053 15 12 11 
-0.077577 -0.072888 -0.386053 15 12 13 
-0.077031 -0.072888 -0.386053 15 12 13 
-0.076485 -0.072888 -0.386053 16 13 15 
-0.076016 -0.072962 -0.386444 16 15 20 
-0.075546 -0.073036 -0.386835 20 18 21 
-0.075075 -0.073110 -0.387228 31 29 41 
-0.074755 -0.073333 -0.388410 68 52 49 
-0.074281 -0.073408 -0.388805 63 59 57 
-0.073806 -0.073483 -0.389201 64 59 62 
-0.073256 -0.073483 -0.389201 74 64 64 
-0.072705 -0.073483 -0.389201 88 74 65 
-0.072081 -0.073408 -0.388805 95 84 72 
-0.071532 -0.073408 -0.388805 54 66 68 
-0.071054 -0.073483 -0.389201 66 49 42 
-0.070575 -0.073558 -0.389599 61 80 103 
-0.070096 -0.073633 -0.389997 230 129 112 
-0.083641 -0.088558 -0.469050 235 180 142 
-0.082876 -0.088450 -0.468474 255 194 150 
-0.081613 -0.087803 -0.465051 253 194 155 
-0.080955 -0.087803 -0.465051 249 192 156 
-0.080297 -0.087803 -0.465051 236 197 157 
-0.079834 -0.088018 -0.466186 251 198 158 
-0.079271 -0.088125 -0.466756 249 192 152 
-0.078611 -0.088125 -0.466756 230 193 152 
-0.077856 -0.088018 -0.466186 243 195 150 
-0.077575 -0.088450 -0.468474 243 183 153 
-0.077102 -0.088667 -0.469627 125 149 132 
-0.076250 -0.088450 -0.468474 206 159 73 
-0.075681 -0.088558 -0.469050 235 194 173 
-0.075295 -0.088886 -0.470785 252 213 179 
-0.074172 -0.088341 -0.467900 249 215 173 
-0.073151 -0.087910 -0.465618 247 210 166 
-0.072493 -0.087910 -0.465618 244 207 165 
-0.071747 -0.087803 -0.465051 245 204 165 
-0.071089 -0.087803 -0.465051 248 204 165 
-0.070345 -0.087696 -0.464485 243 205 165 
-0.069604 -0.087590 -0.463921 238 204 167 
-0.068781 -0.087378 -0.462796 227 200 149 
-0.067961 -0.087166 -0.461677 222 190 140 
-0.067227 -0.087061 -0.461119 225 187 145 
-0.066575 -0.087061 -0.461119 249 189 157 
-0.065923 -0.087061 -0.461119 233 189 169 
-0.065192 -0.086956 -0.460563 231 183 148 
-0.064463 -0.086851 -0.460008 237 173 151 
-0.063659 -0.086642 -0.458902 231 175 152 
-0.062783 -0.086331 -0.457253 230 176 147 
-0.062211 -0.086435 -0.457802 221 177 142 
-0.061860 -0.086851 -0.460008 229 175 134 
-0.061210 -0.086851 -0.460008 235 166 121 
-0.060341 -0.086538 -0.458351 127 135 124 
-0.059693 -0.086538 -0.458351 192 139 127 
-0.058762 -0.086125 -0.456161 228 183 155 
-0.057909 -0.085817 -0.454532 236 194 157 
-0.057199 -0.085715 -0.453991 241 193 157 
-0.056556 -0.085715 -0.453991 246 191 154 
-0.055914 -0.085715 -0.453991 252 192 153 
-0.055272 -0.085715 -0.453991 246 197 153 
-0.054501 -0.085512 -0.452914 242 190 153 
-0.053416 -0.084808 -0.449184 226 190 153 
-0.052046 -0.083627 -0.442931 197 187 152 
-0.051420 -0.083627 -0.442931 163 107 54 
-0.050676 -0.083433 -0.441906 14 18 23 
-0.050051 -0.083433 -0.441906 15 12 14 
-0.049312 -0.083241 -0.440885 10 11 14 
-0.048632 -0.083145 -0.440377 13 12 13 
-0.048009 -0.083145 -0.440377 12 10 11 
-0.047386 -0.083145 -0.440377 7 10 14 
-0.046764 -0.083145 -0.440377 32 23 15 
-0.046194 -0.083241 -0.440885 33 36 38 
-0.045570 -0.083241 -0.440885 37 32 31 
-0.044999 -0.083337 -0.441395 37 26 28 
-0.044426 -0.083433 -0.441906 36 25 12 
-0.043903 -0.083627 -0.442931 33 22 15 
-0.043276 -0.083627 -0.442931 64 27 9 
-0.042699 -0.083724 -0.443446 89 85 119 
-0.042121 -0.083821 -0.443961 228 162 123 
-0.041493 -0.083821 -0.443961 211 170 136 
-0.044095 -0.090447 -0.479055 211 173 145 
-0.044307 -0.092300 -0.488869 213 170 143 
-0.044762 -0.094726 -0.501717 214 176 141 
-0.042924 -0.092300 -0.488869 213 171 140 
-0.042018 -0.091830 -0.486378 209 168 139 
-0.044689 -0.099293 -0.525904 206 171 138 
-0.061119 -0.138097 -0.731430 203 163 139 
-0.061019 -0.140246 -0.742814 169 129 116 
-0.065167 -0.152403 -0.807202 181 138 73 
-0.064025 -0.152403 -0.807202 181 170 152 
-0.079957 -0.193781 -1.026362 225 172 150 
-0.086659 -0.213906 -1.132957 228 178 149 
-0.078964 -0.198585 -1.051809 232 181 151 
-0.073623 -0.188708 -0.999494 227 191 150 
-0.068960 -0.180216 -0.954517 230 183 149 
-0.064544 -0.172044 -0.911233 231 186 150 
-0.060236 -0.163833 -0.867742 225 188 148 
-0.060948 -0.169217 -0.896260 226 185 147 
-0.117674 -0.073583 -0.386835 235 188 152 
-0.116654 -0.073286 -0.385274 217 185 145 
-0.116109 -0.073286 -0.385274 180 166 112 
-0.115564 -0.073286 -0.385274 204 133 80 
-0.115019 -0.073286 -0.385274 209 165 148 
-0.114474 -0.073286 -0.385274 233 197 150 
-0.113929 -0.073286 -0.385274 227 191 161 
-0.113384 -0.073286 -0.385274 240 161 86 
-0.112840 -0.073286 -0.385274 53 75 44 
-0.112408 -0.073360 -0.385663 28 22 21 
-0.112659 -0.073882 -0.388410 20 20 22 
-0.112110 -0.073882 -0.388410 19 18 20 
-0.111447 -0.073807 -0.388015 18 14 15 
-0.110898 -0.073807 -0.388015 17 13 14 
-0.110238 -0.073732 -0.387621 17 15 17 
-0.109578 -0.073658 -0.387228 21 19 15 
-0.108810 -0.073509 -0.386444 18 17 12 
-0.108154 -0.073434 -0.386053 17 14 12 
-0.107608 -0.073434 -0.386053 19 13 12 
-0.107279 -0.073583 -0.386835 28 15 15 
-0.106623 -0.073509 -0.386444 61 34 44 
-0.106184 -0.073583 -0.386835 47 76 77 
-0.105637 -0.073583 -0.386835 41 47 24 
-0.105090 -0.073583 -0.386835 19 18 22 
-0.104649 -0.073658 -0.387228 19 15 17 
-0.103996 -0.073583 -0.386835 16 14 17 
-0.103449 -0.073583 -0.386835 34 16 14 
-0.103320 -0.073882 -0.388410 53 61 72 
-0.102771 -0.073882 -0.388410 235 134 95 
-0.102326 -0.073958 -0.388805 225 170 143 
-0.101776 -0.073958 -0.388805 231 176 142 
-0.101329 -0.074033 -0.389201 230 176 142 
-0.100882 -0.074109 -0.389599 229 178 142 
-0.100331 -0.074109 -0.389599 226 177 142 
-0.099780 -0.074109 -0.389599 220 174 143 
-0.099229 -0.074109 -0.389599 219 177 140 
-0.098778 -0.074184 -0.389997 220 175 140 
-0.098327 -0.074260 -0.390395 218 167 139 
-0.097875 -0.074336 -0.390795 223 170 145 
-0.097422 -0.074412 -0.391195 155 159 147 
-0.096869 -0.074412 -0.391195 172 164 125 
-0.096414 -0.074489 -0.391597 228 180 141 
-0.095860 -0.074489 -0.391597 218 184 156 
-0.095307 -0.074489 -0.391597 218 184 153 
-0.094656 -0.074412 -0.391195 223 180 150 
-0.094102 -0.074412 -0.391195 224 181 138 
-0.093453 -0.074336 -0.390795 225 181 144 
-0.092901 -0.074336 -0.390795 221 180 145 
-0.092348 -0.074336 -0.390795 222 180 150 
-0.091701 -0.074260 -0.390395 228 184 147 
-0.090778 -0.073958 -0.388805 189 176 151 
-0.089953 -0.073732 -0.387621 187 141 91 
-0.089405 -0.073732 -0.387621 202 149 108 
-0.088767 -0.073658 -0.387228 216 177 149 
-0.088219 -0.073658 -0.387228 228 185 152 
-0.087850 -0.073807 -0.388015 230 184 153 
-0.087301 -0.073807 -0.388015 233 182 145 
-0.086664 -0.073732 -0.387621 241 181 147 
-0.086028 -0.073658 -0.387228 234 184 148 
-0.085481 -0.073658 -0.387228 233 180 143 
-0.084847 -0.073583 -0.386835 224 177 142 
-0.084215 -0.073509 -0.386444 230 174 142 
-0.083668 -0.073509 -0.386444 238 171 123 
-0.083121 -0.073509 -0.386444 71 125 107 
-0.082491 -0.073434 -0.386053 51 41 20 
-0.081945 -0.073434 -0.386053 14 15 20 
-0.081153 -0.073212 -0.384886 15 14 16 
-0.080690 -0.073286 -0.385274 15 12 14 
-0.080226 -0.073360 -0.385663 16 12 14 
-0.079681 -0.073360 -0.385663 14 12 14 
-0.079215 -0.073434 -0.386053 14 12 12 
-0.078669 -0.073434 -0.386053 14 12 13 
-0.078123 -0.073434 -0.386053 15 12 14 
-0.077577 -0.073434 -0.386053 15 12 13 
-0.077031 -0.073434 -0.386053 15 12 13 
-0.076485 -0.073434 -0.386053 15 14 13 
-0.076016 -0.073509 -0.386444 16 15 14 
-0.075546 -0.073583 -0.386835 20 15 15 
-0.075075 -0.073658 -0.387228 31 25 27 
-0.074755 -0.073882 -0.388410 58 46 47 
-0.074281 -0.073958 -0.388805 62 60 61 
-0.073806 -0.074033 -0.389201 64 62 63 
-0.073256 -0.074033 -0.389201 72 63 62 
-0.072705 -0.074033 -0.389201 85 72 59 
-0.072081 -0.073958 -0.388805 89 84 78 
-0.071532 -0.073958 -0.388805 76 75 71 
-0.070982 -0.073958 -0.388805 72 60 42 
-0.070575 -0.074109 -0.389599 61 67 87 
-0.070096 -0.074184 -0.389997 113 95 98 
-0.069616 -0.074260 -0.390395 162 134 135 
-0.083388 -0.089662 -0.471366 238 183 148 
-0.082416 -0.089331 -0.469627 243 193 153 
-0.081153 -0.088677 -0.466186 242 195 156 
-0.080493 -0.088677 -0.466186 241 190 156 
-0.079834 -0.088677 -0.466186 228 187 157 
-0.079271 -0.088785 -0.466756 227 184 148 
-0.078611 -0.088785 -0.466756 230 183 146 
-0.077856 -0.088677 -0.466186 242 184 144 
-0.077480 -0.089003 -0.467900 245 189 148 
-0.077102 -0.089331 -0.469627 232 160 132 
-0.076250 -0.089112 -0.468474 200 125 94 
-0.075495 -0.089003 -0.467900 181 167 152 
-0.075668 -0.089996 -0.473119 255 204 155 
-0.074172 -0.089003 -0.467900 250 211 168 
-0.073151 -0.088569 -0.465618 243 207 168 
-0.072493 -0.088569 -0.465618 249 202 168 
-0.071747 -0.088461 -0.465051 250 206 159 
-0.071089 -0.088461 -0.465051 252 202 163 
-0.070345 -0.088353 -0.464485 245 207 164 
-0.069604 -0.088246 -0.463921 244 204 161 
-0.068781 -0.088032 -0.462796 242 202 162 
-0.068044 -0.087925 -0.462236 215 198 165 
-0.067227 -0.087713 -0.461119 221 186 123 
-0.066575 -0.087713 -0.461119 247 169 130 
-0.065923 -0.087713 -0.461119 232 168 134 
-0.065192 -0.087607 -0.460563 232 164 122 
-0.064463 -0.087502 -0.460008 239 166 122 
-0.063659 -0.087291 -0.458902 232 161 122 
-0.062783 -0.086978 -0.457253 230 160 127 
-0.062211 -0.087082 -0.457802 230 169 127 
-0.061786 -0.087396 -0.459454 235 172 127 
-0.061136 -0.087396 -0.459454 239 166 128 
-0.060413 -0.087291 -0.458902 191 173 122 
-0.059693 -0.087187 -0.458351 199 157 97 
-0.058762 -0.086770 -0.456161 191 154 152 
-0.057909 -0.086460 -0.454532 246 185 156 
-0.057199 -0.086357 -0.453991 244 197 153 
-0.056556 -0.086357 -0.453991 247 196 153 
-0.055914 -0.086357 -0.453991 237 193 153 
-0.055272 -0.086357 -0.453991 240 192 154 
-0.054501 -0.086152 -0.452914 243 189 156 
-0.053416 -0.085443 -0.449184 237 192 155 
-0.052046 -0.084253 -0.442931 201 185 152 
-0.051420 -0.084253 -0.442931 155 110 54 
-0.050676 -0.084058 -0.441906 13 20 23 
-0.050051 -0.084058 -0.441906 15 11 14 
-0.049312 -0.083864 -0.440885 11 11 14 
-0.048632 -0.083768 -0.440377 15 12 13 
-0.048009 -0.083768 -0.440377 14 10 11 
-0.047386 -0.083768 -0.440377 11 8 14 
-0.046764 -0.083768 -0.440377 13 18 15 
-0.046194 -0.083864 -0.440885 13 18 32 
-0.045570 -0.083864 -0.440885 13 16 26 
-0.044999 -0.083961 -0.441395 10 13 22 
-0.044426 -0.084058 -0.441906 10 11 15 
-0.043903 -0.084253 -0.442931 4 12 25 
-0.043276 -0.084253 -0.442931 86 37 29 
-0.042699 -0.084351 -0.443446 112 122 106 
-0.042072 -0.084351 -0.443446 225 154 118 
-0.041541 -0.084548 -0.444478 212 167 137 
-0.044095 -0.091125 -0.479055 211 174 148 
-0.044307 -0.092992 -0.488869 203 173 146 
-0.045238 -0.096449 -0.507047 208 177 143 
-0.044403 -0.096194 -0.505704 208 172 142 
-0.043116 -0.094937 -0.499094 205 173 144 
-0.042802 -0.095813 -0.503703 204 175 147 
-0.049540 -0.112774 -0.592867 204 176 146 
-0.058515 -0.135497 -0.712326 190 158 139 
-0.065444 -0.154196 -0.810630 166 116 128 
-0.064025 -0.153544 -0.807202 160 141 107 
-0.078068 -0.190621 -1.002117 225 173 120 
-0.084649 -0.210511 -1.106686 228 178 145 
-0.074452 -0.188640 -0.991706 232 183 153 
-0.071745 -0.185272 -0.973997 224 186 153 
-0.068788 -0.181113 -0.952136 230 182 151 
-0.064544 -0.173333 -0.911233 232 188 152 
-0.060236 -0.165060 -0.867742 228 190 153 
-0.060948 -0.170485 -0.896260 227 188 155 
-0.117674 -0.074130 -0.386835 233 183 153 
-0.116654 -0.073831 -0.385274 224 186 149 
-0.116109 -0.073831 -0.385274 213 163 108 
-0.115564 -0.073831 -0.385274 207 126 76 
-0.115019 -0.073831 -0.385274 206 166 154 
-0.114474 -0.073831 -0.385274 255 203 154 
-0.113929 -0.073831 -0.385274 202 202 165 
-0.113384 -0.073831 -0.385274 134 136 78 
-0.112840 -0.073831 -0.385274 36 37 40 
-0.112408 -0.073905 -0.385663 24 22 20 
-0.112659 -0.074432 -0.388410 21 19 20 
-0.112110 -0.074432 -0.388410 18 16 18 
-0.111447 -0.074356 -0.388015 15 12 16 
-0.110898 -0.074356 -0.388015 20 14 15 
-0.110238 -0.074281 -0.387621 20 17 13 
-0.109578 -0.074205 -0.387228 16 14 13 
-0.108810 -0.074055 -0.386444 16 14 14 
-0.108154 -0.073980 -0.386053 16 14 13 
-0.107717 -0.074055 -0.386444 19 14 14 
-0.107279 -0.074130 -0.386835 32 23 30 
-0.106623 -0.074055 -0.386444 71 70 38 
-0.106184 -0.074130 -0.386835 41 62 49 
-0.105637 -0.074130 -0.386835 35 20 14 
-0.105197 -0.074205 -0.387228 19 16 14 
-0.104649 -0.074205 -0.387228 19 13 12 
-0.104101 -0.074205 -0.387228 14 14 15 
-0.103659 -0.074281 -0.387621 56 21 13 
-0.103320 -0.074432 -0.388410 78 74 98 
-0.102771 -0.074432 -0.388410 194 132 110 
-0.102326 -0.074508 -0.388805 203 163 139 
-0.101776 -0.074508 -0.388805 214 175 142 
-0.101329 -0.074584 -0.389201 215 172 143 
-0.100882 -0.074660 -0.389599 214 173 140 
-0.100331 -0.074660 -0.389599 212 173 142 
-0.099780 -0.074660 -0.389599 210 170 143 
-0.099229 -0.074660 -0.389599 210 174 141 
-0.098778 -0.074736 -0.389997 223 174 141 
-0.098227 -0.074736 -0.389997 222 176 140 
-0.097875 -0.074889 -0.390795 230 172 145 
-0.097422 -0.074966 -0.391195 141 159 145 
-0.096869 -0.074966 -0.391195 166 138 113 
-0.096316 -0.074966 -0.391195 242 169 134 
-0.095860 -0.075043 -0.391597 234 190 152 
-0.095209 -0.074966 -0.391195 234 189 150 
-0.094656 -0.074966 -0.391195 236 187 149 
-0.094102 -0.074966 -0.391195 233 186 150 
-0.093453 -0.074889 -0.390795 231 187 149 
-0.092901 -0.074889 -0.390795 230 186 149 
-0.092348 -0.074889 -0.390795 232 186 146 
-0.091701 -0.074812 -0.390395 240 185 147 
-0.090778 -0.074508 -0.388805 212 186 150 
-0.089953 -0.074281 -0.387621 208 149 125 
-0.089405 -0.074281 -0.387621 193 126 130 
-0.088767 -0.074205 -0.387228 214 158 136 
-0.088219 -0.074205 -0.387228 228 171 141 
-0.087850 -0.074356 -0.388015 230 180 141 
-0.087301 -0.074356 -0.388015 232 176 136 
-0.086576 -0.074205 -0.387228 235 172 137 
-0.086028 -0.074205 -0.387228 235 177 138 
-0.085481 -0.074205 -0.387228 234 177 137 
-0.084847 -0.074130 -0.386835 224 179 135 
-0.084044 -0.073905 -0.385663 228 171 133 
-0.083499 -0.073905 -0.385663 231 167 128 
-0.082954 -0.073905 -0.385663 174 151 109 
-0.082408 -0.073905 -0.385663 108 78 22 
-0.081863 -0.073905 -0.385663 16 20 20 
-0.081317 -0.073905 -0.385663 16 14 16 
-0.080690 -0.073831 -0.385274 16 14 14 
-0.080226 -0.073905 -0.385663 17 12 14 
-0.079681 -0.073905 -0.385663 14 12 14 
-0.079215 -0.073980 -0.386053 14 12 12 
-0.078669 -0.073980 -0.386053 15 12 13 
-0.078123 -0.073980 -0.386053 15 13 14 
-0.077577 -0.073980 -0.386053 15 12 13 
-0.077031 -0.073980 -0.386053 15 14 13 
-0.076485 -0.073980 -0.386053 15 13 12 
-0.076016 -0.074055 -0.386444 16 14 14 
-0.075470 -0.074055 -0.386444 18 15 15 
-0.074999 -0.074130 -0.386835 24 18 22 
-0.074755 -0.074432 -0.388410 37 36 37 
-0.074281 -0.074508 -0.388805 62 54 44 
-0.073806 -0.074584 -0.389201 65 57 56 
-0.073256 -0.074584 -0.389201 71 62 59 
-0.072705 -0.074584 -0.389201 82 67 64 
-0.072081 -0.074508 -0.388805 86 79 81 
-0.071532 -0.074508 -0.388805 87 86 78 
-0.070982 -0.074508 -0.388805 73 66 71 
-0.070575 -0.074660 -0.389599 60 62 68 
-0.070096 -0.074736 -0.389997 98 92 67 
-0.069616 -0.074812 -0.390395 153 115 65 
-0.069063 -0.074812 -0.390395 226 150 117 
-0.082314 -0.089885 -0.469050 239 179 133 
-0.081153 -0.089336 -0.466186 238 178 137 
-0.080493 -0.089336 -0.466186 240 170 130 
-0.079834 -0.089336 -0.466186 221 167 126 
-0.079271 -0.089446 -0.466756 220 163 118 
-0.078611 -0.089446 -0.466756 230 159 122 
-0.077761 -0.089227 -0.465618 236 170 125 
-0.077386 -0.089555 -0.467328 236 173 142 
-0.077102 -0.089996 -0.469627 228 182 134 
-0.076250 -0.089775 -0.468474 166 140 115 
-0.075403 -0.089555 -0.467328 129 103 134 
-0.075202 -0.090106 -0.470205 245 171 142 
-0.074629 -0.090218 -0.470785 244 208 168 
-0.073872 -0.090106 -0.470205 255 210 171 
-0.072404 -0.089119 -0.465051 246 205 170 
-0.071747 -0.089119 -0.465051 249 203 158 
-0.071089 -0.089119 -0.465051 251 206 163 
-0.070345 -0.089010 -0.464485 255 211 165 
-0.069604 -0.088902 -0.463921 253 213 161 
-0.068781 -0.088687 -0.462796 246 205 164 
-0.068044 -0.088579 -0.462236 246 201 166 
-0.067227 -0.088365 -0.461119 235 185 135 
-0.066495 -0.088259 -0.460563 176 172 137 
-0.065843 -0.088259 -0.460563 232 178 135 
-0.065113 -0.088152 -0.460008 240 181 137 
-0.064463 -0.088152 -0.460008 245 185 140 
-0.063659 -0.087940 -0.458902 232 182 142 
-0.062783 -0.087624 -0.457253 230 186 147 
-0.062062 -0.087520 -0.456706 253 189 146 
-0.061564 -0.087730 -0.457802 249 187 144 
-0.060916 -0.087730 -0.457802 249 181 139 
-0.060269 -0.087730 -0.457802 255 181 141 
-0.059621 -0.087730 -0.457802 197 189 149 
-0.058762 -0.087415 -0.456161 156 172 134 
-0.057909 -0.087103 -0.454532 251 186 137 
-0.057199 -0.086999 -0.453991 246 199 159 
-0.056624 -0.087103 -0.454532 248 189 150 
-0.055981 -0.087103 -0.454532 232 183 149 
-0.055338 -0.087103 -0.454532 237 187 153 
-0.054501 -0.086793 -0.452914 241 191 156 
-0.053416 -0.086078 -0.449184 235 188 155 
-0.052046 -0.084880 -0.442931 199 179 152 
-0.051420 -0.084880 -0.442931 157 108 55 
-0.050676 -0.084683 -0.441906 14 24 24 
