ply
        format ascii 1.0
        element vertex 73106
        property float x
        property float y
        property float z
        property uchar red
        property uchar green
        property uchar blue
        end_header
2.598614 -0.521953 -5.090755 30 20 19 
2.605814 -0.521953 -5.090755 27 19 17 
2.613014 -0.521953 -5.090755 29 20 17 
2.620214 -0.521953 -5.090755 30 19 18 
2.627414 -0.521953 -5.090755 19 17 18 
2.634614 -0.521953 -5.090755 18 17 20 
2.641814 -0.521953 -5.090755 17 18 20 
2.649014 -0.521953 -5.090755 18 17 21 
2.656214 -0.521953 -5.090755 14 15 21 
2.663414 -0.521953 -5.090755 14 17 20 
2.670614 -0.521953 -5.090755 17 19 20 
2.677814 -0.521953 -5.090755 17 19 26 
2.649685 -0.515085 -5.023771 17 19 25 
2.656790 -0.515085 -5.023771 17 19 24 
2.663895 -0.515085 -5.023771 15 19 24 
2.671000 -0.515085 -5.023771 15 18 23 
2.678106 -0.515085 -5.023771 14 18 24 
2.721014 -0.521953 -5.090755 15 19 27 
2.728214 -0.521953 -5.090755 17 20 27 
2.735414 -0.521953 -5.090755 19 24 25 
2.742614 -0.521953 -5.090755 21 34 37 
2.749814 -0.521953 -5.090755 49 73 62 
2.757014 -0.521953 -5.090755 113 132 78 
2.764214 -0.521953 -5.090755 90 116 121 
2.771414 -0.521953 -5.090755 61 61 102 
2.778614 -0.521953 -5.090755 111 107 66 
2.785814 -0.521953 -5.090755 177 221 151 
2.793014 -0.521953 -5.090755 204 255 255 
2.800214 -0.521953 -5.090755 255 255 255 
2.807414 -0.521953 -5.090755 255 255 255 
2.814614 -0.521953 -5.090755 255 255 255 
-1.719816 -0.456166 -4.388582 135 97 71 
-1.713609 -0.456166 -4.388582 132 119 75 
-1.707402 -0.456166 -4.388582 153 105 76 
-1.701195 -0.456166 -4.388582 159 116 67 
-1.694988 -0.456166 -4.388582 209 120 84 
-1.708418 -0.461470 -4.439612 232 158 117 
-1.702139 -0.461470 -4.439612 255 206 113 
-1.676367 -0.456166 -4.388582 171 173 117 
-1.670161 -0.456166 -4.388582 146 134 94 
-1.663954 -0.456166 -4.388582 248 150 97 
-1.657747 -0.456166 -4.388582 241 180 138 
-1.651540 -0.456166 -4.388582 249 177 110 
-2.331733 -0.661441 -6.363444 12 15 15 
-2.322733 -0.661441 -6.363444 21 14 12 
-2.313733 -0.661441 -6.363444 25 15 19 
-2.266950 -0.650597 -6.259125 11 15 19 
-2.258098 -0.650597 -6.259125 11 9 12 
-2.249245 -0.650597 -6.259125 10 10 12 
-2.240393 -0.650597 -6.259125 11 9 10 
-2.231540 -0.650597 -6.259125 11 8 8 
-2.186838 -0.640104 -6.158172 9 7 8 
-2.178128 -0.640104 -6.158172 9 6 10 
-2.169419 -0.640104 -6.158172 8 7 10 
-2.160709 -0.640104 -6.158172 9 7 10 
-2.151999 -0.640104 -6.158172 10 7 10 
-2.143290 -0.640104 -6.158172 9 7 11 
-2.134580 -0.640104 -6.158172 8 8 8 
-2.125870 -0.640104 -6.158172 21 8 9 
-2.117161 -0.640104 -6.158172 20 14 19 
-2.108451 -0.640104 -6.158172 25 21 17 
-2.099741 -0.640104 -6.158172 21 15 17 
-2.091032 -0.640104 -6.158172 19 11 10 
-2.082322 -0.640104 -6.158172 10 10 10 
-2.073612 -0.640104 -6.158172 11 10 13 
-2.064903 -0.640104 -6.158172 12 10 13 
-2.056193 -0.640104 -6.158172 13 13 12 
-2.047483 -0.640104 -6.158172 13 11 13 
-2.038774 -0.640104 -6.158172 10 7 13 
-2.030064 -0.640104 -6.158172 16 11 14 
-2.021354 -0.640104 -6.158172 42 25 27 
-2.012645 -0.640104 -6.158172 49 39 47 
-2.003935 -0.640104 -6.158172 54 46 47 
-1.995225 -0.640104 -6.158172 58 48 48 
-1.986516 -0.640104 -6.158172 57 48 50 
-1.977806 -0.640104 -6.158172 53 47 48 
-1.969096 -0.640104 -6.158172 50 45 45 
-1.960387 -0.640104 -6.158172 48 42 52 
-1.983672 -0.650597 -6.259125 47 50 53 
-1.974819 -0.650597 -6.259125 38 33 26 
-1.965967 -0.650597 -6.259125 4 13 23 
-1.957114 -0.650597 -6.259125 10 9 13 
-1.948262 -0.650597 -6.259125 11 10 19 
-1.939409 -0.650597 -6.259125 12 13 20 
-1.930557 -0.650597 -6.259125 12 15 26 
-1.953733 -0.661441 -6.363444 13 17 31 
-1.944733 -0.661441 -6.363444 21 20 33 
-1.935733 -0.661441 -6.363444 22 42 49 
-1.926733 -0.661441 -6.363444 69 48 46 
-1.917733 -0.661441 -6.363444 48 40 37 
-1.908733 -0.661441 -6.363444 16 29 41 
-1.899733 -0.661441 -6.363444 28 25 41 
-2.578272 -0.901964 -8.677423 33 57 67 
-2.472977 -0.881921 -8.484591 72 75 96 
-2.460977 -0.881921 -8.484591 70 65 44 
-2.448977 -0.881921 -8.484591 25 43 36 
-2.963891 -1.072606 -10.319098 26 21 12 
-2.949296 -1.072606 -10.319098 19 24 38 
-2.934702 -1.072606 -10.319098 65 56 41 
-2.920107 -1.072606 -10.319098 52 50 34 
-2.829052 -1.044380 -10.047543 19 25 27 
-2.814841 -1.044380 -10.047543 26 20 22 
-2.800631 -1.044380 -10.047543 27 18 4 
-2.714973 -1.017601 -9.789913 25 15 4 
-2.701127 -1.017601 -9.789913 42 16 4 
-2.687281 -1.017601 -9.789913 61 33 20 
-2.673435 -1.017601 -9.789913 77 59 28 
-2.659589 -1.017601 -9.789913 69 44 33 
-2.645743 -1.017601 -9.789913 18 25 26 
-2.631896 -1.017601 -9.789913 24 17 12 
-2.618050 -1.017601 -9.789913 23 17 24 
-2.604204 -1.017601 -9.789913 15 14 23 
-2.590358 -1.017601 -9.789913 14 13 14 
-2.576512 -1.017601 -9.789913 10 13 14 
-2.562666 -1.017601 -9.789913 10 13 13 
-1.681962 -0.748801 -7.203899 241 201 143 
-1.640814 -0.734934 -7.070493 132 172 133 
-1.630814 -0.734934 -7.070493 153 160 107 
-1.620814 -0.734934 -7.070493 164 136 69 
-1.610814 -0.734934 -7.070493 37 50 59 
-1.571708 -0.721572 -6.941939 36 25 10 
-1.561890 -0.721572 -6.941939 17 26 12 
-1.552072 -0.721572 -6.941939 12 11 11 
-1.542254 -0.721572 -6.941939 12 9 12 
-1.532436 -0.721572 -6.941939 12 9 11 
-1.522618 -0.721572 -6.941939 10 9 10 
-1.512799 -0.721572 -6.941939 10 9 8 
-1.502981 -0.721572 -6.941939 10 9 8 
-1.493163 -0.721572 -6.941939 10 8 10 
-1.483345 -0.721572 -6.941939 9 8 10 
-1.473527 -0.721572 -6.941939 10 8 10 
-1.463709 -0.721572 -6.941939 10 9 10 
-1.453890 -0.721572 -6.941939 10 9 11 
-1.418285 -0.708686 -6.817976 10 8 11 
-1.408642 -0.708686 -6.817976 10 8 11 
-1.424436 -0.721572 -6.941939 11 7 10 
-1.414618 -0.721572 -6.941939 10 8 9 
-1.404799 -0.721572 -6.941939 10 9 11 
-1.394981 -0.721572 -6.941939 9 9 11 
-1.385163 -0.721572 -6.941939 11 8 11 
-1.375345 -0.721572 -6.941939 12 9 12 
-1.365527 -0.721572 -6.941939 14 13 15 
-1.355708 -0.721572 -6.941939 18 20 21 
-1.345890 -0.721572 -6.941939 20 24 25 
-1.336072 -0.721572 -6.941939 32 27 28 
-1.326254 -0.721572 -6.941939 35 41 44 
-1.316436 -0.721572 -6.941939 41 36 26 
-1.306618 -0.721572 -6.941939 21 22 21 
-1.296799 -0.721572 -6.941939 22 21 19 
-1.286981 -0.721572 -6.941939 20 21 23 
-1.277163 -0.721572 -6.941939 34 27 26 
-1.267345 -0.721572 -6.941939 32 21 18 
-1.257527 -0.721572 -6.941939 17 18 21 
-1.906221 -1.102401 -10.605740 22 29 14 
-1.891221 -1.102401 -10.605740 46 104 132 
-1.876221 -1.102401 -10.605740 255 173 145 
-1.861221 -1.102401 -10.605740 239 172 168 
-1.846221 -1.102401 -10.605740 237 198 171 
-1.831221 -1.102401 -10.605740 255 209 170 
-1.816221 -1.102401 -10.605740 255 207 166 
-1.907176 -1.167248 -11.229607 255 210 166 
-1.891293 -1.167248 -11.229607 255 213 165 
-1.875411 -1.167248 -11.229607 242 205 165 
-1.859529 -1.167248 -11.229607 231 183 158 
-1.843646 -1.167248 -11.229607 227 142 156 
-1.827764 -1.167248 -11.229607 240 181 146 
-1.811882 -1.167248 -11.229607 255 199 159 
-1.795999 -1.167248 -11.229607 248 202 162 
-1.780117 -1.167248 -11.229607 249 202 161 
-1.764234 -1.167248 -11.229607 253 198 164 
-1.748352 -1.167248 -11.229607 233 199 165 
-1.732470 -1.167248 -11.229607 226 164 144 
-1.716587 -1.167248 -11.229607 202 144 129 
-1.700705 -1.167248 -11.229607 241 182 117 
0.944477 -0.472458 -4.545317 250 245 236 
0.939718 -0.466899 -4.491843 247 247 248 
0.946071 -0.466899 -4.491843 239 252 243 
0.952424 -0.466899 -4.491843 255 252 241 
0.958777 -0.466899 -4.491843 255 255 255 
0.965130 -0.466899 -4.491843 255 254 255 
0.971483 -0.466899 -4.491843 247 254 255 
0.977836 -0.466899 -4.491843 236 232 232 
0.984189 -0.466899 -4.491843 113 106 168 
1.002334 -0.472458 -4.545317 94 51 45 
1.008762 -0.472458 -4.545317 80 45 43 
1.015191 -0.472458 -4.545317 74 42 41 
1.021619 -0.472458 -4.545317 71 42 33 
1.028048 -0.472458 -4.545317 67 43 36 
1.034477 -0.472458 -4.545317 69 40 36 
1.040905 -0.472458 -4.545317 66 37 36 
1.047334 -0.472458 -4.545317 63 35 31 
1.053762 -0.472458 -4.545317 54 33 29 
1.060191 -0.472458 -4.545317 51 31 26 
1.066619 -0.472458 -4.545317 39 28 26 
1.073048 -0.472458 -4.545317 36 25 25 
1.079477 -0.472458 -4.545317 35 24 25 
1.085905 -0.472458 -4.545317 25 19 22 
1.079483 -0.466899 -4.491843 19 11 9 
1.085836 -0.466899 -4.491843 13 9 8 
1.092189 -0.466899 -4.491843 11 9 8 
1.098542 -0.466899 -4.491843 12 10 10 
1.118048 -0.472458 -4.545317 13 9 11 
1.124477 -0.472458 -4.545317 11 9 11 
1.130905 -0.472458 -4.545317 11 8 9 
1.137334 -0.472458 -4.545317 11 10 9 
1.143762 -0.472458 -4.545317 13 10 9 
1.150191 -0.472458 -4.545317 14 10 8 
1.156619 -0.472458 -4.545317 12 9 8 
1.163048 -0.472458 -4.545317 12 8 10 
1.169477 -0.472458 -4.545317 13 8 11 
1.175905 -0.472458 -4.545317 15 8 11 
1.182334 -0.472458 -4.545317 15 9 11 
1.188762 -0.472458 -4.545317 16 10 11 
1.195191 -0.472458 -4.545317 15 11 11 
1.201619 -0.472458 -4.545317 15 10 9 
1.208048 -0.472458 -4.545317 17 11 9 
1.214477 -0.472458 -4.545317 17 11 11 
1.220905 -0.472458 -4.545317 16 9 11 
1.227334 -0.472458 -4.545317 16 10 11 
1.233762 -0.472458 -4.545317 16 10 9 
1.240191 -0.472458 -4.545317 17 10 10 
1.246619 -0.472458 -4.545317 17 12 11 
1.253048 -0.472458 -4.545317 18 11 11 
1.259477 -0.472458 -4.545317 19 12 11 
1.265905 -0.472458 -4.545317 18 12 10 
1.272334 -0.472458 -4.545317 16 11 11 
1.278762 -0.472458 -4.545317 19 12 12 
1.285191 -0.472458 -4.545317 20 12 11 
1.291619 -0.472458 -4.545317 19 12 11 
1.298048 -0.472458 -4.545317 18 13 12 
1.304477 -0.472458 -4.545317 17 12 12 
1.310905 -0.472458 -4.545317 21 13 12 
1.317334 -0.472458 -4.545317 20 15 14 
1.323762 -0.472458 -4.545317 20 17 14 
1.330191 -0.472458 -4.545317 21 16 15 
1.352723 -0.478150 -4.600080 21 15 14 
1.359229 -0.478150 -4.600080 23 16 15 
1.365735 -0.478150 -4.600080 38 24 13 
1.372241 -0.478150 -4.600080 48 54 63 
1.362334 -0.472458 -4.545317 89 59 80 
1.368762 -0.472458 -4.545317 84 33 27 
1.462228 -0.502360 -4.832995 42 30 28 
1.469064 -0.502360 -4.832995 46 29 22 
1.475899 -0.502360 -4.832995 45 29 28 
1.482735 -0.502360 -4.832995 48 31 29 
1.489570 -0.502360 -4.832995 52 35 35 
1.496405 -0.502360 -4.832995 49 50 56 
1.503241 -0.502360 -4.832995 183 134 60 
1.510076 -0.502360 -4.832995 226 235 238 
1.516912 -0.502360 -4.832995 255 242 220 
1.523747 -0.502360 -4.832995 177 97 33 
1.550206 -0.508800 -4.894957 23 16 32 
1.557129 -0.508800 -4.894957 28 18 18 
1.605211 -0.522190 -5.023771 27 18 14 
1.633814 -0.529153 -5.090755 24 18 14 
1.641014 -0.529153 -5.090755 23 16 14 
1.648214 -0.529153 -5.090755 23 14 14 
1.655414 -0.529153 -5.090755 20 13 14 
1.662614 -0.529153 -5.090755 19 13 14 
1.669814 -0.529153 -5.090755 18 13 13 
1.677014 -0.529153 -5.090755 19 13 9 
1.684214 -0.529153 -5.090755 19 14 11 
1.691414 -0.529153 -5.090755 21 14 12 
1.698614 -0.529153 -5.090755 21 13 11 
1.728865 -0.536303 -5.159549 18 14 12 
1.736163 -0.536303 -5.159549 17 13 15 
1.743460 -0.536303 -5.159549 15 13 12 
1.750757 -0.536303 -5.159549 19 14 11 
1.758054 -0.536303 -5.159549 19 13 12 
1.765352 -0.536303 -5.159549 18 13 12 
1.749014 -0.529153 -5.090755 20 13 10 
1.756214 -0.529153 -5.090755 22 13 12 
1.763414 -0.529153 -5.090755 21 14 13 
1.770614 -0.529153 -5.090755 21 15 14 
1.777814 -0.529153 -5.090755 17 16 14 
1.785014 -0.529153 -5.090755 20 16 14 
1.792214 -0.529153 -5.090755 20 21 24 
1.799414 -0.529153 -5.090755 47 34 26 
1.806614 -0.529153 -5.090755 48 103 71 
1.838325 -0.536303 -5.159549 255 205 82 
1.845622 -0.536303 -5.159549 246 206 151 
1.852919 -0.536303 -5.159549 240 218 183 
1.860217 -0.536303 -5.159549 251 252 213 
1.893096 -0.543650 -5.230228 255 250 248 
1.900494 -0.543650 -5.230228 246 250 251 
1.907891 -0.543650 -5.230228 248 253 235 
1.915288 -0.543650 -5.230228 255 248 232 
1.922685 -0.543650 -5.230228 248 249 225 
1.930083 -0.543650 -5.230228 255 239 226 
1.937480 -0.543650 -5.230228 141 198 234 
1.944877 -0.543650 -5.230228 127 87 59 
1.952274 -0.543650 -5.230228 41 29 59 
1.959672 -0.543650 -5.230228 47 32 26 
1.967069 -0.543650 -5.230228 42 29 29 
1.974466 -0.543650 -5.230228 46 28 28 
1.981863 -0.543650 -5.230228 41 45 39 
1.989261 -0.543650 -5.230228 155 99 50 
1.996658 -0.543650 -5.230228 174 213 181 
2.004055 -0.543650 -5.230228 255 255 189 
4.420974 -1.072606 -10.319098 255 255 250 
4.318843 -1.044380 -10.047543 255 255 249 
4.333054 -1.044380 -10.047543 255 255 250 
4.347264 -1.044380 -10.047543 255 255 246 
2.461814 -0.529153 -5.090755 250 255 255 
2.469014 -0.529153 -5.090755 255 230 185 
2.476214 -0.529153 -5.090755 127 112 148 
2.483414 -0.529153 -5.090755 77 38 61 
2.490614 -0.529153 -5.090755 37 24 41 
2.497814 -0.529153 -5.090755 30 22 25 
2.505014 -0.529153 -5.090755 27 25 24 
2.512214 -0.529153 -5.090755 27 26 26 
2.519414 -0.529153 -5.090755 27 25 26 
2.526614 -0.529153 -5.090755 29 29 29 
2.533814 -0.529153 -5.090755 48 29 27 
2.541014 -0.529153 -5.090755 47 26 18 
2.548214 -0.529153 -5.090755 50 26 20 
2.555414 -0.529153 -5.090755 47 26 23 
2.562614 -0.529153 -5.090755 41 26 22 
2.569814 -0.529153 -5.090755 40 25 20 
2.577014 -0.529153 -5.090755 37 24 20 
2.584214 -0.529153 -5.090755 36 24 20 
2.591414 -0.529153 -5.090755 35 22 18 
2.598614 -0.529153 -5.090755 30 21 16 
2.605814 -0.529153 -5.090755 28 20 19 
2.613014 -0.529153 -5.090755 30 21 20 
2.620214 -0.529153 -5.090755 31 21 20 
2.627414 -0.529153 -5.090755 20 18 20 
2.634614 -0.529153 -5.090755 18 18 17 
2.641814 -0.529153 -5.090755 17 16 17 
2.649014 -0.529153 -5.090755 17 15 21 
2.656214 -0.529153 -5.090755 14 16 21 
2.663414 -0.529153 -5.090755 14 19 23 
2.670614 -0.529153 -5.090755 18 20 23 
2.642579 -0.522190 -5.023771 18 19 24 
2.649685 -0.522190 -5.023771 15 17 24 
2.656790 -0.522190 -5.023771 15 18 22 
2.663895 -0.522190 -5.023771 14 18 22 
2.671000 -0.522190 -5.023771 14 18 24 
2.678106 -0.522190 -5.023771 15 20 24 
2.685211 -0.522190 -5.023771 16 20 24 
2.728214 -0.529153 -5.090755 18 20 25 
2.735414 -0.529153 -5.090755 20 24 28 
2.742614 -0.529153 -5.090755 23 37 38 
2.749814 -0.529153 -5.090755 52 74 67 
2.757014 -0.529153 -5.090755 140 127 74 
2.764214 -0.529153 -5.090755 104 98 103 
2.771414 -0.529153 -5.090755 35 52 97 
2.778614 -0.529153 -5.090755 103 115 80 
2.785814 -0.529153 -5.090755 226 221 144 
2.793014 -0.529153 -5.090755 227 255 255 
2.800214 -0.529153 -5.090755 255 255 255 
2.807414 -0.529153 -5.090755 255 255 255 
2.814614 -0.529153 -5.090755 255 255 255 
-1.719816 -0.462373 -4.388582 117 117 113 
-1.713609 -0.462373 -4.388582 120 145 163 
-1.707402 -0.462373 -4.388582 149 154 166 
-1.701195 -0.462373 -4.388582 157 160 135 
-1.694988 -0.462373 -4.388582 191 148 136 
-1.688781 -0.462373 -4.388582 218 181 121 
-1.682574 -0.462373 -4.388582 255 243 167 
-1.676367 -0.462373 -4.388582 150 192 193 
-1.670161 -0.462373 -4.388582 128 129 105 
-1.663954 -0.462373 -4.388582 193 129 103 
-1.657747 -0.462373 -4.388582 178 141 105 
-1.651540 -0.462373 -4.388582 168 127 88 
-2.752769 -0.773585 -7.342435 83 96 64 
-2.322733 -0.670441 -6.363444 26 13 12 
-2.313733 -0.670441 -6.363444 31 19 19 
-2.304733 -0.670441 -6.363444 12 18 20 
-2.258098 -0.659450 -6.259125 12 11 12 
-2.249245 -0.659450 -6.259125 10 10 12 
-2.240393 -0.659450 -6.259125 9 9 10 
-2.231540 -0.659450 -6.259125 9 9 9 
-2.186838 -0.648813 -6.158172 8 8 9 
-2.178128 -0.648813 -6.158172 8 7 10 
-2.169419 -0.648813 -6.158172 5 8 10 
-2.160709 -0.648813 -6.158172 6 9 11 
-2.151999 -0.648813 -6.158172 8 7 10 
-2.143290 -0.648813 -6.158172 7 6 9 
-2.134580 -0.648813 -6.158172 7 6 8 
-2.125870 -0.648813 -6.158172 7 6 9 
-2.117161 -0.648813 -6.158172 13 7 11 
-2.108451 -0.648813 -6.158172 28 10 12 
-2.099741 -0.648813 -6.158172 19 13 13 
-2.091032 -0.648813 -6.158172 17 11 12 
-2.082322 -0.648813 -6.158172 10 10 12 
-2.073612 -0.648813 -6.158172 11 10 13 
-2.064903 -0.648813 -6.158172 12 10 12 
-2.056193 -0.648813 -6.158172 12 11 10 
-2.047483 -0.648813 -6.158172 12 8 9 
-2.038774 -0.648813 -6.158172 9 6 9 
-2.030064 -0.648813 -6.158172 15 11 19 
-2.021354 -0.648813 -6.158172 41 28 30 
-2.012645 -0.648813 -6.158172 47 39 46 
-2.003935 -0.648813 -6.158172 52 45 47 
-1.995225 -0.648813 -6.158172 51 47 47 
-1.986516 -0.648813 -6.158172 51 45 45 
-1.977806 -0.648813 -6.158172 53 45 45 
-1.969096 -0.648813 -6.158172 48 43 45 
-1.960387 -0.648813 -6.158172 45 41 47 
-1.951677 -0.648813 -6.158172 64 57 47 
-1.974819 -0.659450 -6.259125 54 54 39 
-1.965967 -0.659450 -6.259125 14 22 28 
-1.957114 -0.659450 -6.259125 13 11 14 
-1.948262 -0.659450 -6.259125 10 10 19 
-1.939409 -0.659450 -6.259125 12 12 19 
-1.930557 -0.659450 -6.259125 15 17 20 
-1.953733 -0.670441 -6.363444 25 22 24 
-1.977694 -0.681804 -6.471299 35 30 28 
-1.968542 -0.681804 -6.471299 40 42 45 
-1.959389 -0.681804 -6.471299 24 48 47 
-1.950237 -0.681804 -6.471299 22 29 36 
-1.908733 -0.670441 -6.363444 16 25 40 
-1.931932 -0.681804 -6.471299 24 26 39 
-3.091221 -1.117401 -10.605740 211 113 69 
-3.076221 -1.117401 -10.605740 186 90 41 
-3.061221 -1.117401 -10.605740 21 65 36 
-2.963891 -1.087201 -10.319098 27 23 22 
-2.949296 -1.087201 -10.319098 15 21 26 
-2.934702 -1.087201 -10.319098 75 41 28 
-2.920107 -1.087201 -10.319098 57 51 60 
-2.905513 -1.087201 -10.319098 16 29 64 
-2.814841 -1.058590 -10.047543 19 66 69 
-2.800631 -1.058590 -10.047543 23 80 117 
-2.714973 -1.031447 -9.789913 31 89 119 
-2.701127 -1.031447 -9.789913 54 97 104 
-2.687281 -1.031447 -9.789913 82 129 146 
-2.673435 -1.031447 -9.789913 101 144 161 
-2.659589 -1.031447 -9.789913 100 122 81 
-2.645743 -1.031447 -9.789913 35 43 56 
-2.631896 -1.031447 -9.789913 31 23 12 
-2.618050 -1.031447 -9.789913 25 15 13 
-2.604204 -1.031447 -9.789913 21 13 12 
-2.590358 -1.031447 -9.789913 20 16 12 
-2.576512 -1.031447 -9.789913 18 17 13 
-2.562666 -1.031447 -9.789913 15 13 13 
-1.630814 -0.744934 -7.070493 187 169 133 
-1.620814 -0.744934 -7.070493 158 145 106 
-1.610814 -0.744934 -7.070493 68 123 100 
-1.600814 -0.744934 -7.070493 50 49 57 
-1.561890 -0.731390 -6.941939 12 32 32 
-1.552072 -0.731390 -6.941939 11 13 20 
-1.542254 -0.731390 -6.941939 11 11 11 
-1.532436 -0.731390 -6.941939 12 9 11 
-1.522618 -0.731390 -6.941939 10 8 9 
-1.512799 -0.731390 -6.941939 10 8 10 
-1.502981 -0.731390 -6.941939 11 8 10 
-1.493163 -0.731390 -6.941939 10 7 10 
-1.483345 -0.731390 -6.941939 9 7 9 
-1.473527 -0.731390 -6.941939 10 8 9 
-1.463709 -0.731390 -6.941939 10 9 10 
-1.427928 -0.718329 -6.817976 10 9 10 
-1.418285 -0.718329 -6.817976 10 8 10 
-1.408642 -0.718329 -6.817976 10 8 9 
-1.424436 -0.731390 -6.941939 11 8 10 
-1.414618 -0.731390 -6.941939 10 8 10 
-1.404799 -0.731390 -6.941939 10 9 7 
-1.394981 -0.731390 -6.941939 8 8 8 
-1.385163 -0.731390 -6.941939 11 9 8 
-1.375345 -0.731390 -6.941939 12 11 15 
-1.365527 -0.731390 -6.941939 18 14 17 
-1.355708 -0.731390 -6.941939 21 20 21 
-1.345890 -0.731390 -6.941939 22 24 29 
-1.336072 -0.731390 -6.941939 31 28 31 
-1.326254 -0.731390 -6.941939 36 37 42 
-1.316436 -0.731390 -6.941939 45 37 27 
-1.306618 -0.731390 -6.941939 22 23 23 
-1.296799 -0.731390 -6.941939 23 19 20 
-1.286981 -0.731390 -6.941939 25 23 27 
-1.277163 -0.731390 -6.941939 26 29 31 
-1.267345 -0.731390 -6.941939 25 23 15 
-1.257527 -0.731390 -6.941939 8 22 19 
-1.906221 -1.117401 -10.605740 189 39 10 
-1.891221 -1.117401 -10.605740 229 154 167 
-1.876221 -1.117401 -10.605740 255 221 164 
-1.861221 -1.117401 -10.605740 251 205 173 
-1.846221 -1.117401 -10.605740 250 179 170 
-1.831221 -1.117401 -10.605740 246 191 168 
-1.816221 -1.117401 -10.605740 251 200 165 
-1.907176 -1.183131 -11.229607 253 200 166 
-1.891293 -1.183131 -11.229607 255 206 166 
-1.875411 -1.183131 -11.229607 252 206 164 
-1.859529 -1.183131 -11.229607 251 205 159 
-1.843646 -1.183131 -11.229607 234 173 157 
-1.827764 -1.183131 -11.229607 233 149 150 
-1.811882 -1.183131 -11.229607 229 179 155 
-1.795999 -1.183131 -11.229607 252 196 155 
-1.780117 -1.183131 -11.229607 252 201 160 
-1.764234 -1.183131 -11.229607 252 198 161 
-1.748352 -1.183131 -11.229607 249 197 161 
-1.732470 -1.183131 -11.229607 238 194 156 
-1.716587 -1.183131 -11.229607 207 163 146 
-1.700705 -1.183131 -11.229607 212 152 142 
-1.684823 -1.183131 -11.229607 223 194 135 
0.955856 -0.484656 -4.600080 248 251 229 
0.950905 -0.478886 -4.545317 247 250 255 
0.946071 -0.473252 -4.491843 242 253 251 
0.952424 -0.473252 -4.491843 254 253 248 
0.958777 -0.473252 -4.491843 255 255 244 
0.965130 -0.473252 -4.491843 255 254 248 
0.971483 -0.473252 -4.491843 247 253 253 
0.977836 -0.473252 -4.491843 239 238 242 
0.984189 -0.473252 -4.491843 127 134 182 
1.002334 -0.478886 -4.545317 101 59 49 
1.008762 -0.478886 -4.545317 81 45 40 
1.015191 -0.478886 -4.545317 75 45 38 
1.021619 -0.478886 -4.545317 72 44 37 
1.028048 -0.478886 -4.545317 68 43 37 
1.034477 -0.478886 -4.545317 68 40 37 
1.040905 -0.478886 -4.545317 66 38 31 
1.047334 -0.478886 -4.545317 62 37 31 
1.053762 -0.478886 -4.545317 54 35 30 
1.060191 -0.478886 -4.545317 52 31 24 
1.066619 -0.478886 -4.545317 39 29 24 
1.073048 -0.478886 -4.545317 37 27 22 
1.079477 -0.478886 -4.545317 36 26 25 
1.085905 -0.478886 -4.545317 26 22 23 
1.092334 -0.478886 -4.545317 21 13 10 
1.098762 -0.478886 -4.545317 13 9 11 
1.105191 -0.478886 -4.545317 11 8 11 
1.111619 -0.478886 -4.545317 12 9 7 
1.118048 -0.478886 -4.545317 13 12 10 
1.124477 -0.478886 -4.545317 12 9 13 
1.130905 -0.478886 -4.545317 11 8 9 
1.137334 -0.478886 -4.545317 10 8 8 
1.143762 -0.478886 -4.545317 12 10 5 
1.150191 -0.478886 -4.545317 14 11 9 
1.156619 -0.478886 -4.545317 12 10 9 
1.163048 -0.478886 -4.545317 13 9 9 
1.169477 -0.478886 -4.545317 13 9 10 
1.175905 -0.478886 -4.545317 15 9 10 
1.182334 -0.478886 -4.545317 15 10 8 
1.188762 -0.478886 -4.545317 16 10 9 
1.195191 -0.478886 -4.545317 15 10 10 
1.201619 -0.478886 -4.545317 15 9 8 
1.208048 -0.478886 -4.545317 17 10 8 
1.214477 -0.478886 -4.545317 17 10 11 
1.220905 -0.478886 -4.545317 17 10 11 
1.227334 -0.478886 -4.545317 16 11 11 
1.233762 -0.478886 -4.545317 16 11 13 
1.240191 -0.478886 -4.545317 17 10 12 
1.246619 -0.478886 -4.545317 18 12 10 
1.253048 -0.478886 -4.545317 18 12 10 
1.259477 -0.478886 -4.545317 19 12 10 
1.265905 -0.478886 -4.545317 18 12 11 
1.272334 -0.478886 -4.545317 15 12 11 
1.278762 -0.478886 -4.545317 19 12 11 
1.285191 -0.478886 -4.545317 20 12 11 
1.291619 -0.478886 -4.545317 19 12 11 
1.298048 -0.478886 -4.545317 18 13 12 
1.304477 -0.478886 -4.545317 18 13 12 
1.310905 -0.478886 -4.545317 21 13 12 
1.317334 -0.478886 -4.545317 21 15 16 
1.323762 -0.478886 -4.545317 20 16 17 
1.346217 -0.484656 -4.600080 21 16 18 
1.352723 -0.484656 -4.600080 22 16 15 
1.359229 -0.484656 -4.600080 23 18 17 
1.365735 -0.484656 -4.600080 36 37 25 
1.372241 -0.484656 -4.600080 52 84 50 
1.378747 -0.484656 -4.600080 64 61 64 
1.402147 -0.490566 -4.656178 63 34 29 
1.462228 -0.509195 -4.832995 42 30 29 
1.469064 -0.509195 -4.832995 45 28 25 
1.475899 -0.509195 -4.832995 46 28 26 
1.464200 -0.502830 -4.772583 48 28 26 
1.470950 -0.502830 -4.772583 49 31 32 
1.496405 -0.509195 -4.832995 37 41 40 
1.503241 -0.509195 -4.832995 162 83 34 
1.510076 -0.509195 -4.832995 206 190 183 
1.516912 -0.509195 -4.832995 255 250 190 
1.523747 -0.509195 -4.832995 184 103 146 
1.530583 -0.509195 -4.832995 21 21 78 
1.557129 -0.515724 -4.894957 28 19 18 
1.626614 -0.536352 -5.090755 25 17 15 
1.633814 -0.536352 -5.090755 29 17 15 
1.641014 -0.536352 -5.090755 26 18 14 
1.648214 -0.536352 -5.090755 20 15 14 
1.655414 -0.536352 -5.090755 21 14 14 
1.662614 -0.536352 -5.090755 21 13 13 
1.669814 -0.536352 -5.090755 17 13 13 
1.677014 -0.536352 -5.090755 19 13 11 
1.684214 -0.536352 -5.090755 20 12 11 
1.691414 -0.536352 -5.090755 19 12 11 
1.721568 -0.543600 -5.159549 19 12 11 
1.728865 -0.543600 -5.159549 18 13 11 
1.736163 -0.543600 -5.159549 18 12 12 
1.743460 -0.543600 -5.159549 19 11 11 
1.750757 -0.543600 -5.159549 17 11 11 
1.758054 -0.543600 -5.159549 17 11 11 
1.765352 -0.543600 -5.159549 16 11 11 
1.772649 -0.543600 -5.159549 18 11 11 
1.779946 -0.543600 -5.159549 20 13 12 
1.763414 -0.536352 -5.090755 21 15 12 
1.770614 -0.536352 -5.090755 22 15 14 
1.777814 -0.536352 -5.090755 22 15 14 
1.785014 -0.536352 -5.090755 23 15 13 
1.792214 -0.536352 -5.090755 19 25 20 
1.799414 -0.536352 -5.090755 81 49 19 
1.831028 -0.543600 -5.159549 93 68 73 
1.838325 -0.543600 -5.159549 190 158 84 
1.845622 -0.543600 -5.159549 204 214 179 
1.852919 -0.543600 -5.159549 255 230 193 
1.860217 -0.543600 -5.159549 255 255 219 
1.893096 -0.551047 -5.230228 255 255 230 
1.900494 -0.551047 -5.230228 255 255 234 
1.907891 -0.551047 -5.230228 252 238 238 
1.915288 -0.551047 -5.230228 230 237 236 
1.922685 -0.551047 -5.230228 227 239 232 
1.930083 -0.551047 -5.230228 221 234 229 
1.937480 -0.551047 -5.230228 227 208 237 
1.944877 -0.551047 -5.230228 224 125 97 
1.952274 -0.551047 -5.230228 46 47 84 
1.959672 -0.551047 -5.230228 56 30 25 
1.967069 -0.551047 -5.230228 45 30 30 
1.974466 -0.551047 -5.230228 44 30 28 
1.981863 -0.551047 -5.230228 40 37 37 
1.989261 -0.551047 -5.230228 97 76 41 
1.996658 -0.551047 -5.230228 122 179 167 
2.004055 -0.551047 -5.230228 255 250 175 
4.420974 -1.087201 -10.319098 255 255 255 
4.435568 -1.087201 -10.319098 255 255 255 
4.333054 -1.058590 -10.047543 255 255 249 
2.305352 -0.543600 -5.159549 170 212 255 
2.495081 -0.543600 -5.159549 255 233 246 
2.469014 -0.536352 -5.090755 255 140 150 
2.476214 -0.536352 -5.090755 116 57 85 
2.483414 -0.536352 -5.090755 44 29 52 
2.490614 -0.536352 -5.090755 32 24 38 
2.497814 -0.536352 -5.090755 26 32 34 
2.505014 -0.536352 -5.090755 32 31 33 
2.512214 -0.536352 -5.090755 33 26 27 
2.519414 -0.536352 -5.090755 30 25 27 
2.526614 -0.536352 -5.090755 32 28 26 
2.533814 -0.536352 -5.090755 49 30 26 
2.541014 -0.536352 -5.090755 48 27 19 
2.548214 -0.536352 -5.090755 45 25 20 
2.555414 -0.536352 -5.090755 45 25 22 
2.562614 -0.536352 -5.090755 42 26 21 
2.569814 -0.536352 -5.090755 41 25 20 
2.577014 -0.536352 -5.090755 41 24 20 
2.584214 -0.536352 -5.090755 37 23 20 
2.591414 -0.536352 -5.090755 33 23 19 
2.598614 -0.536352 -5.090755 32 23 18 
2.605814 -0.536352 -5.090755 31 22 19 
2.613014 -0.536352 -5.090755 30 22 19 
2.620214 -0.536352 -5.090755 31 22 20 
2.627414 -0.536352 -5.090755 23 20 20 
2.634614 -0.536352 -5.090755 21 17 18 
2.641814 -0.536352 -5.090755 14 15 17 
2.649014 -0.536352 -5.090755 13 17 21 
2.656214 -0.536352 -5.090755 13 18 21 
2.663414 -0.536352 -5.090755 13 19 23 
2.635474 -0.529295 -5.023771 18 21 23 
2.642579 -0.529295 -5.023771 18 19 24 
2.649685 -0.529295 -5.023771 14 17 24 
2.656790 -0.529295 -5.023771 14 17 22 
2.663895 -0.529295 -5.023771 15 18 22 
2.671000 -0.529295 -5.023771 15 19 24 
2.678106 -0.529295 -5.023771 16 21 24 
2.685211 -0.529295 -5.023771 16 20 23 
2.728214 -0.536352 -5.090755 18 20 24 
2.735414 -0.536352 -5.090755 21 24 29 
2.742614 -0.536352 -5.090755 31 45 36 
2.749814 -0.536352 -5.090755 59 108 66 
2.757014 -0.536352 -5.090755 184 151 69 
2.764214 -0.536352 -5.090755 138 95 93 
2.771414 -0.536352 -5.090755 27 49 92 
2.778614 -0.536352 -5.090755 91 116 91 
2.785814 -0.536352 -5.090755 232 221 138 
2.793014 -0.536352 -5.090755 227 255 255 
2.800214 -0.536352 -5.090755 255 255 255 
2.807414 -0.536352 -5.090755 255 255 255 
2.814614 -0.536352 -5.090755 255 255 255 
-1.719816 -0.468580 -4.388582 128 120 105 
-1.713609 -0.468580 -4.388582 127 129 130 
-1.707402 -0.468580 -4.388582 144 142 125 
-1.701195 -0.468580 -4.388582 141 135 118 
-1.694988 -0.468580 -4.388582 125 121 113 
-1.688781 -0.468580 -4.388582 192 125 92 
-1.682574 -0.468580 -4.388582 255 190 187 
-1.676367 -0.468580 -4.388582 117 233 245 
-1.670161 -0.468580 -4.388582 92 146 116 
-1.663954 -0.468580 -4.388582 142 119 114 
-1.657747 -0.468580 -4.388582 133 129 113 
-2.763153 -0.783970 -7.342435 119 130 94 
-2.752769 -0.783970 -7.342435 65 92 74 
-2.742384 -0.783970 -7.342435 28 37 27 
-2.304733 -0.679441 -6.363444 11 19 28 
-2.258098 -0.668302 -6.259125 11 11 9 
-2.249245 -0.668302 -6.259125 8 10 10 
-2.240393 -0.668302 -6.259125 9 8 8 
-2.231540 -0.668302 -6.259125 9 8 10 
-2.222688 -0.668302 -6.259125 8 7 10 
-2.178128 -0.657523 -6.158172 8 7 9 
-2.169419 -0.657523 -6.158172 7 8 9 
-2.160709 -0.657523 -6.158172 8 9 12 
-2.151999 -0.657523 -6.158172 9 7 9 
-2.143290 -0.657523 -6.158172 8 6 8 
-2.134580 -0.657523 -6.158172 8 6 8 
-2.125870 -0.657523 -6.158172 7 6 8 
-2.117161 -0.657523 -6.158172 7 6 9 
-2.108451 -0.657523 -6.158172 6 6 11 
-2.099741 -0.657523 -6.158172 8 8 12 
-2.091032 -0.657523 -6.158172 9 10 12 
-2.082322 -0.657523 -6.158172 15 9 12 
-2.073612 -0.657523 -6.158172 14 11 14 
-2.064903 -0.657523 -6.158172 11 11 12 
-2.056193 -0.657523 -6.158172 10 10 11 
-2.047483 -0.657523 -6.158172 10 9 10 
-2.038774 -0.657523 -6.158172 6 7 10 
-2.030064 -0.657523 -6.158172 14 10 16 
-2.021354 -0.657523 -6.158172 41 22 24 
-2.012645 -0.657523 -6.158172 46 36 36 
-2.003935 -0.657523 -6.158172 50 41 41 
-1.995225 -0.657523 -6.158172 44 40 41 
-1.986516 -0.657523 -6.158172 46 35 37 
-1.977806 -0.657523 -6.158172 53 39 40 
-1.969096 -0.657523 -6.158172 47 42 43 
-1.960387 -0.657523 -6.158172 43 44 47 
-1.951677 -0.657523 -6.158172 71 46 48 
-1.942967 -0.657523 -6.158172 58 55 55 
-1.965967 -0.668302 -6.259125 19 49 39 
-1.957114 -0.668302 -6.259125 14 22 21 
-1.948262 -0.668302 -6.259125 10 14 15 
-1.939409 -0.668302 -6.259125 12 14 15 
-1.930557 -0.668302 -6.259125 15 19 24 
-1.953733 -0.679441 -6.363444 22 25 37 
-1.977694 -0.690957 -6.471299 32 36 47 
-1.968542 -0.690957 -6.471299 35 51 77 
-1.959389 -0.690957 -6.471299 27 49 73 
-1.950237 -0.690957 -6.471299 25 32 32 
-1.941084 -0.690957 -6.471299 19 26 36 
-1.931932 -0.690957 -6.471299 24 28 34 
-3.151221 -1.132401 -10.605740 27 37 43 
-3.106221 -1.132401 -10.605740 128 81 48 
-3.091221 -1.132401 -10.605740 141 79 48 
-3.076221 -1.132401 -10.605740 131 88 36 
-3.061221 -1.132401 -10.605740 80 67 33 
-2.963891 -1.101796 -10.319098 42 33 25 
-2.949296 -1.101796 -10.319098 16 16 23 
-2.934702 -1.101796 -10.319098 48 33 26 
-2.920107 -1.101796 -10.319098 59 57 64 
-2.905513 -1.101796 -10.319098 74 74 75 
-2.890918 -1.101796 -10.319098 235 141 86 
-2.800631 -1.072801 -10.047543 255 186 133 
-2.786420 -1.072801 -10.047543 237 180 130 
-2.701127 -1.045293 -9.789913 244 145 112 
-2.687281 -1.045293 -9.789913 246 174 145 
-2.673435 -1.045293 -9.789913 255 197 156 
-2.659589 -1.045293 -9.789913 233 196 123 
-2.645743 -1.045293 -9.789913 87 131 104 
-2.631896 -1.045293 -9.789913 33 58 83 
-2.618050 -1.045293 -9.789913 6 35 32 
-2.604204 -1.045293 -9.789913 21 16 29 
-2.590358 -1.045293 -9.789913 18 28 19 
-2.576512 -1.045293 -9.789913 19 16 23 
-2.562666 -1.045293 -9.789913 0 19 23 
-1.620814 -0.754934 -7.070493 155 119 144 
-1.610814 -0.754934 -7.070493 202 158 135 
-1.600814 -0.754934 -7.070493 176 155 82 
-1.561890 -0.741208 -6.941939 149 70 39 
-1.552072 -0.741208 -6.941939 40 36 23 
-1.542254 -0.741208 -6.941939 30 17 11 
-1.532436 -0.741208 -6.941939 12 14 11 
-1.522618 -0.741208 -6.941939 13 10 9 
-1.512799 -0.741208 -6.941939 12 9 10 
-1.502981 -0.741208 -6.941939 10 9 10 
-1.493163 -0.741208 -6.941939 9 8 10 
-1.483345 -0.741208 -6.941939 9 8 9 
-1.473527 -0.741208 -6.941939 8 8 9 
-1.437571 -0.727972 -6.817976 9 9 10 
-1.427928 -0.727972 -6.817976 11 9 9 
-1.418285 -0.727972 -6.817976 10 8 9 
-1.408642 -0.727972 -6.817976 10 8 10 
-1.398999 -0.727972 -6.817976 10 8 10 
-1.414618 -0.741208 -6.941939 9 9 11 
-1.404799 -0.741208 -6.941939 9 8 8 
-1.394981 -0.741208 -6.941939 7 8 9 
-1.385163 -0.741208 -6.941939 12 8 8 
-1.375345 -0.741208 -6.941939 13 11 15 
-1.365527 -0.741208 -6.941939 23 16 17 
-1.355708 -0.741208 -6.941939 24 22 21 
-1.345890 -0.741208 -6.941939 24 24 27 
-1.336072 -0.741208 -6.941939 30 27 28 
-1.326254 -0.741208 -6.941939 37 35 37 
-1.316436 -0.741208 -6.941939 47 38 34 
-1.306618 -0.741208 -6.941939 22 27 33 
-1.296799 -0.741208 -6.941939 24 23 24 
-1.286981 -0.741208 -6.941939 27 28 30 
-1.277163 -0.741208 -6.941939 24 25 33 
-1.267345 -0.741208 -6.941939 28 20 18 
-1.921221 -1.132401 -10.605740 35 29 74 
-1.906221 -1.132401 -10.605740 206 119 117 
-1.891221 -1.132401 -10.605740 238 216 169 
-1.876221 -1.132401 -10.605740 255 215 169 
-1.861221 -1.132401 -10.605740 252 213 176 
-1.846221 -1.132401 -10.605740 251 196 157 
-1.831221 -1.132401 -10.605740 236 164 158 
-1.868114 -1.164755 -10.908761 248 178 160 
-1.852685 -1.164755 -10.908761 254 200 172 
-1.891293 -1.199013 -11.229607 255 206 171 
-1.875411 -1.199013 -11.229607 253 205 165 
-1.859529 -1.199013 -11.229607 253 197 162 
-1.843646 -1.199013 -11.229607 240 197 161 
-1.827764 -1.199013 -11.229607 240 176 157 
-1.811882 -1.199013 -11.229607 239 151 147 
-1.795999 -1.199013 -11.229607 240 180 146 
-1.780117 -1.199013 -11.229607 245 203 160 
-1.764234 -1.199013 -11.229607 255 200 157 
-1.748352 -1.199013 -11.229607 250 201 157 
-1.732470 -1.199013 -11.229607 247 202 164 
-1.716587 -1.199013 -11.229607 244 196 153 
-1.700705 -1.199013 -11.229607 227 180 150 
-1.684823 -1.199013 -11.229607 226 164 124 
0.955856 -0.491162 -4.600080 243 247 221 
0.950905 -0.485315 -4.545317 248 243 242 
0.957334 -0.485315 -4.545317 255 246 231 
0.952424 -0.479605 -4.491843 255 251 226 
0.958777 -0.479605 -4.491843 255 251 233 
0.965130 -0.479605 -4.491843 255 243 234 
0.971483 -0.479605 -4.491843 242 240 235 
0.977836 -0.479605 -4.491843 237 249 237 
0.984189 -0.479605 -4.491843 196 175 194 
1.002334 -0.485315 -4.545317 132 71 59 
1.008762 -0.485315 -4.545317 84 47 44 
1.015191 -0.485315 -4.545317 75 45 40 
1.021619 -0.485315 -4.545317 74 45 37 
1.028048 -0.485315 -4.545317 73 45 37 
1.034477 -0.485315 -4.545317 67 43 37 
1.040905 -0.485315 -4.545317 65 38 32 
1.047334 -0.485315 -4.545317 60 37 32 
1.053762 -0.485315 -4.545317 56 33 31 
1.060191 -0.485315 -4.545317 54 32 27 
1.066619 -0.485315 -4.545317 41 29 26 
1.073048 -0.485315 -4.545317 39 26 23 
1.079477 -0.485315 -4.545317 38 25 24 
1.085905 -0.485315 -4.545317 31 23 22 
1.092334 -0.485315 -4.545317 26 13 11 
1.098762 -0.485315 -4.545317 17 9 11 
1.105191 -0.485315 -4.545317 14 9 11 
1.111619 -0.485315 -4.545317 13 8 8 
1.118048 -0.485315 -4.545317 9 10 9 
1.124477 -0.485315 -4.545317 14 9 10 
1.130905 -0.485315 -4.545317 15 9 9 
1.137334 -0.485315 -4.545317 14 9 8 
1.143762 -0.485315 -4.545317 12 9 7 
1.150191 -0.485315 -4.545317 10 8 8 
1.156619 -0.485315 -4.545317 15 8 8 
1.163048 -0.485315 -4.545317 15 9 9 
1.169477 -0.485315 -4.545317 15 9 9 
1.175905 -0.485315 -4.545317 14 9 10 
1.182334 -0.485315 -4.545317 14 10 9 
1.188762 -0.485315 -4.545317 15 10 9 
1.195191 -0.485315 -4.545317 15 10 11 
1.201619 -0.485315 -4.545317 15 11 10 
1.208048 -0.485315 -4.545317 16 11 10 
1.214477 -0.485315 -4.545317 17 10 11 
1.220905 -0.485315 -4.545317 19 11 11 
1.227334 -0.485315 -4.545317 15 12 11 
1.233762 -0.485315 -4.545317 15 12 13 
1.240191 -0.485315 -4.545317 16 11 12 
1.246619 -0.485315 -4.545317 16 12 10 
1.253048 -0.485315 -4.545317 17 12 10 
1.259477 -0.485315 -4.545317 19 12 10 
1.265905 -0.485315 -4.545317 18 13 11 
1.272334 -0.485315 -4.545317 16 13 11 
1.278762 -0.485315 -4.545317 20 13 11 
1.285191 -0.485315 -4.545317 21 12 12 
1.291619 -0.485315 -4.545317 18 13 12 
1.298048 -0.485315 -4.545317 21 13 13 
1.304477 -0.485315 -4.545317 22 14 12 
1.310905 -0.485315 -4.545317 23 15 12 
1.317334 -0.485315 -4.545317 23 15 16 
1.323762 -0.485315 -4.545317 23 16 17 
1.346217 -0.491162 -4.600080 24 16 18 
1.352723 -0.491162 -4.600080 24 18 16 
1.359229 -0.491162 -4.600080 28 24 20 
1.365735 -0.491162 -4.600080 87 60 44 
1.372241 -0.491162 -4.600080 194 119 69 
1.395561 -0.497152 -4.656178 86 95 88 
1.402147 -0.497152 -4.656178 73 40 32 
1.443950 -0.509580 -4.772583 53 32 32 
1.450700 -0.509580 -4.772583 50 31 26 
1.457450 -0.509580 -4.772583 46 29 26 
1.464200 -0.509580 -4.772583 45 28 26 
1.470950 -0.509580 -4.772583 45 29 31 
1.477700 -0.509580 -4.772583 43 32 35 
1.503241 -0.516031 -4.832995 72 57 28 
1.510076 -0.516031 -4.832995 74 143 161 
1.516912 -0.516031 -4.832995 255 232 181 
1.523747 -0.516031 -4.832995 219 239 174 
1.530583 -0.516031 -4.832995 109 76 96 
1.537418 -0.516031 -4.832995 49 15 17 
1.626614 -0.543552 -5.090755 27 16 15 
1.633814 -0.543552 -5.090755 21 17 15 
1.641014 -0.543552 -5.090755 23 17 14 
1.648214 -0.543552 -5.090755 25 16 14 
1.655414 -0.543552 -5.090755 21 16 14 
1.662614 -0.543552 -5.090755 20 16 13 
1.669814 -0.543552 -5.090755 20 15 13 
1.677014 -0.543552 -5.090755 20 14 12 
1.684214 -0.543552 -5.090755 19 12 11 
1.691414 -0.543552 -5.090755 17 11 11 
1.721568 -0.550898 -5.159549 16 9 11 
1.728865 -0.550898 -5.159549 14 12 11 
1.736163 -0.550898 -5.159549 14 12 11 
1.743460 -0.550898 -5.159549 14 11 11 
1.750757 -0.550898 -5.159549 14 11 11 
1.758054 -0.550898 -5.159549 14 12 11 
1.765352 -0.550898 -5.159549 13 11 11 
1.772649 -0.550898 -5.159549 15 11 11 
1.779946 -0.550898 -5.159549 17 12 11 
1.787244 -0.550898 -5.159549 15 12 11 
1.770614 -0.543552 -5.090755 15 14 14 
1.777814 -0.543552 -5.090755 18 13 14 
1.785014 -0.543552 -5.090755 19 15 11 
1.792214 -0.543552 -5.090755 17 17 15 
1.799414 -0.543552 -5.090755 49 32 12 
1.831028 -0.550898 -5.159549 49 94 71 
1.838325 -0.550898 -5.159549 240 172 84 
1.845622 -0.550898 -5.159549 237 220 232 
1.852919 -0.550898 -5.159549 255 249 225 
1.860217 -0.550898 -5.159549 255 241 240 
1.893096 -0.558444 -5.230228 255 255 211 
1.900494 -0.558444 -5.230228 255 255 203 
1.907891 -0.558444 -5.230228 254 252 247 
1.915288 -0.558444 -5.230228 246 252 247 
1.922685 -0.558444 -5.230228 245 250 254 
1.930083 -0.558444 -5.230228 243 240 242 
1.937480 -0.558444 -5.230228 240 253 240 
1.944877 -0.558444 -5.230228 238 211 199 
1.952274 -0.558444 -5.230228 110 83 177 
1.959672 -0.558444 -5.230228 95 31 17 
1.967069 -0.558444 -5.230228 41 31 32 
1.974466 -0.558444 -5.230228 45 28 28 
1.981863 -0.558444 -5.230228 40 32 33 
1.989261 -0.558444 -5.230228 89 53 32 
1.996658 -0.558444 -5.230228 107 150 134 
2.004055 -0.558444 -5.230228 255 248 149 
4.468779 -1.132401 -10.605740 251 246 224 
4.483778 -1.132401 -10.605740 251 244 226 
4.498779 -1.132401 -10.605740 253 244 225 
4.420974 -1.101796 -10.319098 255 244 227 
4.435568 -1.101796 -10.319098 255 249 229 
4.333054 -1.072801 -10.047543 255 249 243 
4.347264 -1.072801 -10.047543 255 254 244 
2.298054 -0.550898 -5.159549 255 255 249 
2.305352 -0.550898 -5.159549 255 255 239 
2.312649 -0.550898 -5.159549 255 252 235 
2.319946 -0.550898 -5.159549 255 249 222 
2.487784 -0.550898 -5.159549 205 206 225 
2.495081 -0.550898 -5.159549 163 184 236 
2.502379 -0.550898 -5.159549 130 98 144 
2.509676 -0.550898 -5.159549 73 40 64 
2.516973 -0.550898 -5.159549 30 31 48 
2.524271 -0.550898 -5.159549 42 37 35 
2.497814 -0.543552 -5.090755 45 35 36 
2.505014 -0.543552 -5.090755 33 29 37 
2.512214 -0.543552 -5.090755 31 26 29 
2.519414 -0.543552 -5.090755 28 23 28 
2.526614 -0.543552 -5.090755 29 27 25 
2.533814 -0.543552 -5.090755 50 30 25 
2.541014 -0.543552 -5.090755 49 27 20 
2.548214 -0.543552 -5.090755 46 25 20 
2.555414 -0.543552 -5.090755 45 25 21 
2.562614 -0.543552 -5.090755 40 25 21 
2.569814 -0.543552 -5.090755 40 24 21 
2.577014 -0.543552 -5.090755 40 25 21 
2.584214 -0.543552 -5.090755 38 24 20 
2.591414 -0.543552 -5.090755 35 22 20 
2.598614 -0.543552 -5.090755 34 22 21 
2.605814 -0.543552 -5.090755 32 23 19 
2.613014 -0.543552 -5.090755 30 24 17 
2.620214 -0.543552 -5.090755 30 22 19 
2.627414 -0.543552 -5.090755 21 18 19 
2.634614 -0.543552 -5.090755 17 15 17 
2.607053 -0.536400 -5.023771 14 14 16 
2.614158 -0.536400 -5.023771 13 16 21 
2.621264 -0.536400 -5.023771 14 19 22 
2.628369 -0.536400 -5.023771 14 20 23 
2.635474 -0.536400 -5.023771 17 19 23 
2.642579 -0.536400 -5.023771 17 18 24 
2.649685 -0.536400 -5.023771 15 17 24 
2.656790 -0.536400 -5.023771 14 17 23 
2.663895 -0.536400 -5.023771 15 19 23 
2.671000 -0.536400 -5.023771 15 21 23 
2.678106 -0.536400 -5.023771 17 21 23 
2.685211 -0.536400 -5.023771 17 20 25 
2.692316 -0.536400 -5.023771 18 23 26 
2.735414 -0.543552 -5.090755 20 25 30 
2.742614 -0.543552 -5.090755 33 39 41 
2.749814 -0.543552 -5.090755 52 102 119 
2.757014 -0.543552 -5.090755 188 131 104 
2.764214 -0.543552 -5.090755 152 78 68 
2.771414 -0.543552 -5.090755 28 52 80 
2.778614 -0.543552 -5.090755 79 112 111 
2.785814 -0.543552 -5.090755 234 216 139 
2.793014 -0.543552 -5.090755 226 255 255 
2.800214 -0.543552 -5.090755 255 255 255 
2.807414 -0.543552 -5.090755 255 255 255 
2.814614 -0.543552 -5.090755 255 255 255 
-1.713609 -0.474787 -4.388582 89 78 67 
-1.707402 -0.474787 -4.388582 117 112 70 
-1.701195 -0.474787 -4.388582 105 115 104 
-1.694988 -0.474787 -4.388582 65 95 97 
-1.688781 -0.474787 -4.388582 110 83 70 
-1.682574 -0.474787 -4.388582 129 121 212 
-1.676367 -0.474787 -4.388582 230 183 255 
-2.741584 -0.779367 -7.203899 249 195 117 
-2.731396 -0.779367 -7.203899 168 158 117 
-2.721207 -0.779367 -7.203899 172 134 109 
-2.711018 -0.779367 -7.203899 175 128 90 
-2.752769 -0.794355 -7.342435 87 81 70 
-2.742384 -0.794355 -7.342435 32 37 27 
-2.731999 -0.794355 -7.342435 25 18 13 
-2.295733 -0.688441 -6.363444 11 9 11 
-2.249245 -0.677155 -6.259125 6 10 12 
-2.240393 -0.677155 -6.259125 8 8 13 
-2.231540 -0.677155 -6.259125 9 7 10 
-2.222688 -0.677155 -6.259125 8 7 9 
-2.178128 -0.666233 -6.158172 8 7 10 
-2.169419 -0.666233 -6.158172 7 8 10 
-2.160709 -0.666233 -6.158172 8 9 10 
-2.151999 -0.666233 -6.158172 9 7 9 
-2.143290 -0.666233 -6.158172 8 7 9 
-2.134580 -0.666233 -6.158172 8 7 7 
-2.125870 -0.666233 -6.158172 7 7 8 
-2.117161 -0.666233 -6.158172 7 7 12 
-2.108451 -0.666233 -6.158172 7 7 11 
-2.099741 -0.666233 -6.158172 9 7 10 
-2.091032 -0.666233 -6.158172 10 8 10 
-2.082322 -0.666233 -6.158172 13 9 10 
-2.073612 -0.666233 -6.158172 12 11 15 
-2.064903 -0.666233 -6.158172 10 10 14 
-2.056193 -0.666233 -6.158172 9 10 14 
-2.047483 -0.666233 -6.158172 9 9 10 
-2.038774 -0.666233 -6.158172 8 6 10 
-2.030064 -0.666233 -6.158172 11 8 14 
-2.021354 -0.666233 -6.158172 22 17 22 
-2.012645 -0.666233 -6.158172 34 29 31 
-2.003935 -0.666233 -6.158172 41 37 39 
-1.995225 -0.666233 -6.158172 34 34 40 
-1.986516 -0.666233 -6.158172 36 33 35 
-1.977806 -0.666233 -6.158172 45 37 39 
-1.969096 -0.666233 -6.158172 48 41 42 
-1.960387 -0.666233 -6.158172 50 43 47 
-1.951677 -0.666233 -6.158172 47 47 48 
-1.942967 -0.666233 -6.158172 51 44 51 
-1.965967 -0.677155 -6.259125 66 45 42 
-1.957114 -0.677155 -6.259125 26 35 36 
-1.948262 -0.677155 -6.259125 11 19 20 
-1.939409 -0.677155 -6.259125 13 15 19 
-1.930557 -0.677155 -6.259125 14 17 30 
-1.953733 -0.688441 -6.363444 15 22 40 
-1.977694 -0.700109 -6.471299 26 31 47 
-1.968542 -0.700109 -6.471299 29 47 61 
-1.959389 -0.700109 -6.471299 27 41 57 
-1.950237 -0.700109 -6.471299 25 28 34 
-1.941084 -0.700109 -6.471299 20 27 39 
-1.931932 -0.700109 -6.471299 25 29 39 
-3.151221 -1.147401 -10.605740 27 35 51 
-3.136221 -1.147401 -10.605740 65 80 74 
-3.121221 -1.147401 -10.605740 90 113 148 
-3.106221 -1.147401 -10.605740 120 144 147 
-3.091221 -1.147401 -10.605740 141 144 150 
-3.076221 -1.147401 -10.605740 136 151 134 
-3.061221 -1.147401 -10.605740 79 118 95 
-2.963891 -1.116390 -10.319098 43 53 31 
-2.949296 -1.116390 -10.319098 19 22 23 
-2.934702 -1.116390 -10.319098 41 21 25 
-2.920107 -1.116390 -10.319098 64 51 77 
-2.905513 -1.116390 -10.319098 124 96 121 
-2.772210 -1.087011 -10.047543 225 169 133 
-2.687281 -1.059139 -9.789913 198 172 156 
-2.673435 -1.059139 -9.789913 253 200 162 
-2.659589 -1.059139 -9.789913 248 208 169 
-2.645743 -1.059139 -9.789913 233 204 146 
-2.631896 -1.059139 -9.789913 214 154 125 
-2.618050 -1.059139 -9.789913 221 120 36 
-2.604204 -1.059139 -9.789913 73 84 32 
-2.590358 -1.059139 -9.789913 79 30 22 
-2.576512 -1.059139 -9.789913 50 57 31 
-2.562666 -1.059139 -9.789913 200 84 41 
-2.417599 -1.032661 -9.545166 74 58 74 
-2.404099 -1.032661 -9.545166 130 132 108 
-2.390599 -1.032661 -9.545166 248 170 120 
-2.377099 -1.032661 -9.545166 250 167 132 
-1.610814 -0.764934 -7.070493 208 142 95 
-1.600814 -0.764934 -7.070493 188 180 150 
-1.561890 -0.751026 -6.941939 184 167 113 
-1.552072 -0.751026 -6.941939 38 68 103 
-1.542254 -0.751026 -6.941939 31 27 9 
-1.532436 -0.751026 -6.941939 14 17 14 
-1.522618 -0.751026 -6.941939 14 13 11 
-1.512799 -0.751026 -6.941939 13 9 12 
-1.502981 -0.751026 -6.941939 11 9 11 
-1.493163 -0.751026 -6.941939 10 8 8 
-1.483345 -0.751026 -6.941939 10 8 9 
-1.447214 -0.737615 -6.817976 9 7 9 
-1.437571 -0.737615 -6.817976 9 8 11 
-1.427928 -0.737615 -6.817976 10 9 8 
-1.418285 -0.737615 -6.817976 9 9 8 
-1.408642 -0.737615 -6.817976 9 9 12 
-1.398999 -0.737615 -6.817976 9 9 11 
-1.389357 -0.737615 -6.817976 9 8 11 
-1.379714 -0.737615 -6.817976 9 7 9 
-1.370071 -0.737615 -6.817976 9 9 9 
-1.385163 -0.751026 -6.941939 10 8 8 
-1.375345 -0.751026 -6.941939 11 10 15 
-1.365527 -0.751026 -6.941939 21 16 17 
-1.355708 -0.751026 -6.941939 21 22 21 
-1.345890 -0.751026 -6.941939 21 23 26 
-1.336072 -0.751026 -6.941939 32 26 27 
-1.326254 -0.751026 -6.941939 36 35 37 
-1.316436 -0.751026 -6.941939 43 41 35 
-1.306618 -0.751026 -6.941939 26 32 35 
-1.296799 -0.751026 -6.941939 29 27 25 
-1.286981 -0.751026 -6.941939 37 30 30 
-1.277163 -0.751026 -6.941939 14 29 31 
-1.267345 -0.751026 -6.941939 41 22 46 
-1.921221 -1.147401 -10.605740 161 103 98 
-1.906221 -1.147401 -10.605740 239 195 139 
-1.891221 -1.147401 -10.605740 255 207 168 
-1.876221 -1.147401 -10.605740 255 211 167 
-1.861221 -1.147401 -10.605740 255 210 169 
-1.846221 -1.147401 -10.605740 254 210 166 
-1.831221 -1.147401 -10.605740 217 193 164 
-1.868114 -1.180184 -10.908761 246 163 156 
-1.852685 -1.180184 -10.908761 255 193 155 
-1.837256 -1.180184 -10.908761 255 200 154 
-1.821828 -1.180184 -10.908761 255 201 156 
-1.806399 -1.180184 -10.908761 255 195 152 
-1.790971 -1.180184 -10.908761 243 194 152 
-1.775542 -1.180184 -10.908761 243 194 157 
-1.760113 -1.180184 -10.908761 241 185 153 
-1.744685 -1.180184 -10.908761 236 148 153 
-1.729256 -1.180184 -10.908761 241 182 156 
-1.713828 -1.180184 -10.908761 252 204 172 
-1.698399 -1.180184 -10.908761 251 203 178 
-1.682971 -1.180184 -10.908761 249 206 174 
-1.667542 -1.180184 -10.908761 245 205 175 
-1.652113 -1.180184 -10.908761 229 200 176 
-1.636685 -1.180184 -10.908761 228 181 149 
0.955856 -0.497668 -4.600080 217 228 212 
0.950905 -0.491743 -4.545317 219 230 225 
0.957334 -0.491743 -4.545317 230 229 214 
0.952424 -0.485958 -4.491843 250 236 206 
0.958777 -0.485958 -4.491843 253 241 221 
0.965130 -0.485958 -4.491843 255 233 219 
0.971483 -0.485958 -4.491843 252 240 215 
0.977836 -0.485958 -4.491843 251 247 232 
0.984189 -0.485958 -4.491843 243 211 196 
0.990542 -0.485958 -4.491843 160 101 63 
1.008762 -0.491743 -4.545317 90 52 46 
1.015191 -0.491743 -4.545317 80 47 40 
1.021619 -0.491743 -4.545317 78 45 38 
1.028048 -0.491743 -4.545317 76 45 37 
1.034477 -0.491743 -4.545317 69 43 36 
1.040905 -0.491743 -4.545317 67 37 33 
1.047334 -0.491743 -4.545317 58 37 33 
1.053762 -0.491743 -4.545317 53 35 32 
1.060191 -0.491743 -4.545317 51 31 29 
1.066619 -0.491743 -4.545317 43 31 27 
1.073048 -0.491743 -4.545317 39 26 22 
1.079477 -0.491743 -4.545317 36 24 22 
1.085905 -0.491743 -4.545317 31 24 21 
1.092334 -0.491743 -4.545317 25 15 13 
1.098762 -0.491743 -4.545317 15 8 11 
1.105191 -0.491743 -4.545317 10 7 10 
1.111619 -0.491743 -4.545317 10 7 9 
1.118048 -0.491743 -4.545317 9 7 8 
1.124477 -0.491743 -4.545317 9 7 6 
1.130905 -0.491743 -4.545317 9 6 8 
1.137334 -0.491743 -4.545317 9 8 8 
1.143762 -0.491743 -4.545317 9 7 8 
1.150191 -0.491743 -4.545317 9 6 7 
1.156619 -0.491743 -4.545317 9 6 7 
1.163048 -0.491743 -4.545317 9 7 8 
1.169477 -0.491743 -4.545317 8 9 9 
1.175905 -0.491743 -4.545317 13 9 11 
1.182334 -0.491743 -4.545317 14 10 10 
1.188762 -0.491743 -4.545317 16 10 11 
1.195191 -0.491743 -4.545317 15 11 11 
1.201619 -0.491743 -4.545317 14 12 13 
1.208048 -0.491743 -4.545317 16 10 13 
1.214477 -0.491743 -4.545317 17 10 10 
1.220905 -0.491743 -4.545317 18 11 10 
1.227334 -0.491743 -4.545317 16 11 9 
1.233762 -0.491743 -4.545317 16 12 12 
1.240191 -0.491743 -4.545317 17 12 12 
1.246619 -0.491743 -4.545317 17 11 11 
